# .PCD v0.7 - Point Cloud Data file format
VERSION 0.7
FIELDS x y z intensity normal_x normal_y normal_z curvature
SIZE 4 4 4 4 4 4 4 4
TYPE F F F F F F F F
COUNT 1 1 1 1 1 1 1 1
WIDTH 1121
HEIGHT 1
VIEWPOINT 0 0 0 1 0 0 0
POINTS 1121
DATA ascii
51.749142 -3.6485326 -1.7093056 1 0 0 0 0
51.733208 -3.5446935 -1.6327573 3 0 0 0 0
51.894535 -3.6263804 -1.6723973 2 0 0 0 0
51.809223 -3.7459455 -1.6347699 26 0 0 0 0
51.724678 -3.6477129 -1.5081298 2 0 0 0 0
51.615849 -3.8081081 -1.3854165 52 0 0 0 0
51.814713 -3.5263493 -1.5143613 2 0 0 0 0
52.319118 -3.5232046 -1.697638 1 0 0 0 0
52.008476 -3.8086023 -1.5561707 16 0 0 0 0
52.244061 -3.6247928 -1.737535 4 0 0 0 0
52.077576 -3.6984308 -1.4870583 25 0 0 0 0
52.632858 -3.6936355 -1.5010337 60 0 0 0 0
52.717659 -3.7240448 -1.7599816 65 0 0 0 0
52.831329 -3.7528965 -1.5893674 42 0 0 0 0
54.786079 -3.6741254 -1.8722959 7 0 0 0 0
54.191166 -3.8328786 -1.5722095 31 0 0 0 0
53.952644 -3.769742 -1.6434842 1 0 0 0 0
52.902565 -3.8465185 -1.6714191 23 0 0 0 0
54.183491 -3.7107766 -1.5099615 52 0 0 0 0
54.095455 -3.7129185 -1.7492818 3 0 0 0 0
54.232513 -3.8094134 -1.6966697 31 0 0 0 0
54.230717 -3.7204332 -1.6500701 67 0 0 0 0
54.577713 -3.6344244 -1.2878501 36 0 0 0 0
55.259644 -3.6819375 -1.8273377 24 0 0 0 0
54.907398 -3.7095613 -1.8520825 30 0 0 0 0
55.0998 -3.7406256 -1.9118209 38 0 0 0 0
55.280193 -3.2977145 -1.8337414 1 0 0 0 0
55.342751 -3.8331852 -1.6605576 10 0 0 0 0
54.902779 -3.6256402 -1.2755899 49 0 0 0 0
55.313801 -3.6462388 -1.2996554 54 0 0 0 0
55.408272 -3.8259389 -1.6476055 32 0 0 0 0
55.383808 -3.7440922 -1.6866452 28.5 0 0 0 0
57.416367 -4.8083763 -1.9751559 2 0 0 0 0
56.574852 -3.8180327 -1.8506092 9 0 0 0 0
56.379784 -6.792285 -1.9347289 60 0 0 0 0
56.508862 -6.7999191 -1.9738841 3 0 0 0 0
56.360996 -6.8626156 -1.8794037 7 0 0 0 0
56.481968 -6.8947134 -2.0277157 3 0 0 0 0
56.407288 -6.8491325 -1.8754901 12 0 0 0 0
57.044781 -6.8291087 -1.8761128 34 0 0 0 0
56.89513 -6.8320751 -1.8958275 4 0 0 0 0
57.070412 -6.8241072 -1.76215 50 0 0 0 0
56.243595 -6.6835217 -1.5852332 2 0 0 0 0
57.053429 -6.7499905 -1.9506382 63 0 0 0 0
56.320221 -6.7144837 -1.7626803 3 0 0 0 0
57.32716 -6.7225189 -1.9303983 8 0 0 0 0
57.09087 -5.4737253 -1.9331827 4 0 0 0 0
57.071671 -5.7080398 -1.9129518 1 0 0 0 0
57.128551 -5.2750597 -1.9222546 1 0 0 0 0
56.575394 -4.3723555 -1.8855786 2 0 0 0 0
56.583481 -3.7290304 -1.745952 37 0 0 0 0
56.25996 -3.4547532 -1.949738 2 0 0 0 0
55.625229 -3.4998982 -1.8233161 3 0 0 0 0
55.444504 -3.6493168 -1.7051644 3 0 0 0 0
56.146446 -3.6749032 -1.4281675 67 0 0 0 0
56.319614 -3.728498 -1.927874 60 0 0 0 0
56.518635 -3.814244 -1.7968186 12 0 0 0 0
56.555984 -3.6777527 -1.9182165 65 0 0 0 0
56.465706 -3.2857015 -1.8840429 2 0 0 0 0
56.991592 -3.683743 -1.9300213 67 0 0 0 0
56.963024 -3.6640098 -1.7771002 95 0 0 0 0
56.719547 -3.7008443 -1.8322197 63 0 0 0 0
56.649956 -3.3345101 -1.8872575 4 0 0 0 0
57.11784 -3.7667441 -1.7393044 65 0 0 0 0
57.102951 -3.7861431 -1.8801676 68 0 0 0 0
57.263313 -3.751816 -2.0208294 58 0 0 0 0
57.199219 -3.2693348 -1.968986 4 0 0 0 0
58.429928 -4.7887926 -1.9015223 2 0 0 0 0
58.950089 -6.6542716 -2.0290742 3 0 0 0 0
58.165539 -6.7338443 -2.0054078 3 0 0 0 0
57.560471 -6.7548146 -1.8976183 38 0 0 0 0
57.531937 -6.708601 -2.0046797 49 0 0 0 0
57.680702 -6.7006793 -1.9609655 6 0 0 0 0
58.79425 -6.8152528 -1.9896455 42 0 0 0 0
58.632019 -6.7344279 -2.0563838 19 0 0 0 0
59.173492 -6.7505822 -2.0391054 5 0 0 0 0
58.464184 -5.5867481 -2.0194404 2 0 0 0 0
58.560448 -6.546505 -1.9494182 2 0 0 0 0
58.67355 -6.6271105 -1.9701791 14 0 0 0 0
58.932961 -5.5984769 -1.9877956 3 0 0 0 0
58.251881 -4.8313799 -1.9500613 5 0 0 0 0
58.084404 -4.9008074 -1.9645602 5 0 0 0 0
57.650864 -4.8504329 -1.9777054 2 0 0 0 0
58.336609 -4.8413601 -2.0226274 9 0 0 0 0
58.552048 -4.9082246 -1.9890306 5 0 0 0 0
58.863991 -3.6966538 -1.9198451 11 0 0 0 0
58.613861 -3.5421715 -1.8906862 11 0 0 0 0
58.555756 -3.8062544 -1.9244733 2 0 0 0 0
57.832882 -3.6583979 -1.4942471 42 0 0 0 0
57.634064 -4.4387112 -1.9718477 5 0 0 0 0
58.56052 -3.7222919 -1.9327608 3 0 0 0 0
58.722385 -3.8014657 -1.9381535 5 0 0 0 0
58.719727 -3.5918603 -2.0265055 20 0 0 0 0
58.733093 -3.6486802 -1.9308411 23 0 0 0 0
58.663116 -3.7581558 -1.5169317 58 0 0 0 0
59.0938 -3.4727306 -1.9060839 4 0 0 0 0
59.077141 -3.6250613 -1.9273704 3 0 0 0 0
59.085396 -3.4798405 -2.0906627 11 0 0 0 0
58.998493 -3.5180585 -2.0348759 29 0 0 0 0
58.951008 -3.4808047 -1.9014575 4 0 0 0 0
59.252632 -3.490236 -1.9716001 8 0 0 0 0
59.116261 -3.6797822 -2.0231295 19 0 0 0 0
59.107937 -3.3484998 -1.9069978 8 0 0 0 0
59.31461 -3.3754799 -2.0071824 19 0 0 0 0
48.946003 -0.86075765 -1.2824994 24 0 0 0 0
46.553967 -0.83716089 -1.1704092 21 0 0 0 0
45.513519 -0.78874868 0.74421233 46 0 0 0 0
45.24511 -3.1235278 -1.4632255 7 0 0 0 0
45.080051 -0.85327888 0.4980545 59 0 0 0 0
44.621918 -1.9148343 -1.4683826 16 0 0 0 0
44.544506 -2.6582916 -1.4777726 1 0 0 0 0
44.085766 -2.6576898 -1.4726149 12 0 0 0 0
44.058983 -2.7484837 -1.3983431 0 0 0 0 0
44.255188 -2.7054191 -1.4577507 0 0 0 0 0
44.965736 -3.1618688 -1.4832458 1 0 0 0 0
44.639854 -2.6432636 -1.452722 2 0 0 0 0
45.182682 -3.1615536 -1.4647027 1 0 0 0 0
44.629272 -2.4701028 -1.5267069 19 0 0 0 0
44.261105 -2.4775574 -1.5221539 19 0 0 0 0
44.180199 -2.5144281 -1.508482 24 0 0 0 0
44.467152 -1.9709301 -1.4396741 1 0 0 0 0
44.978813 -2.5676577 -1.4910902 6 0 0 0 0
45.076866 -2.6081111 -1.4903035 3 0 0 0 0
45.0924 -2.5376887 -1.4962455 5 0 0 0 0
44.824333 -1.9214326 -1.4869447 5 0 0 0 0
44.490845 -0.88662618 0.30517676 66 0 0 0 0
45.030342 -0.95746112 0.10918527 49 0 0 0 0
44.904152 -1.792818 -1.4146339 3 0 0 0 0
44.331692 -1.8654829 -1.4746883 21 0 0 0 0
45.031216 -1.9001622 -1.4615055 2 0 0 0 0
44.08672 -0.86695623 -1.4529605 26 0 0 0 0
44.902386 -0.87463564 0.3042267 72 0 0 0 0
44.671154 -0.88633221 0.18046397 39 0 0 0 0
45.121727 -0.87991184 0.30219159 82 0 0 0 0
44.703396 -0.91045171 0.51507229 27 0 0 0 0
44.687435 -0.89871061 0.70791328 35 0 0 0 0
44.584988 -0.91145861 0.41623604 57 0 0 0 0
44.515163 -0.94815409 0.73262948 38 0 0 0 0
44.874962 -0.87744814 0.52101648 61 0 0 0 0
44.723431 -0.8775174 0.32124636 56 0 0 0 0
44.876205 -0.89569432 0.68899614 35 0 0 0 0
45.079117 -0.8832041 0.70701402 61 0 0 0 0
44.612309 -0.81156945 -0.31899223 70 0 0 0 0
44.028393 -0.80733418 -0.88453895 72 0 0 0 0
43.937466 -0.81127304 -1.371273 35 0 0 0 0
44.324379 -0.84469724 -1.4717414 30 0 0 0 0
44.490864 -0.72014385 -0.9297269 20 0 0 0 0
44.156834 -0.77772224 -0.38183585 61.5 0 0 0 0
44.491501 -0.72405213 -0.68431878 35 0 0 0 0
44.503578 -0.8266024 -0.30340692 58 0 0 0 0
44.8577 -0.78562909 -1.4744941 62 0 0 0 0
44.751671 -0.76211518 -1.4849653 48 0 0 0 0
44.731079 -0.8396706 -1.4912348 55 0 0 0 0
45.226151 -0.84091485 -1.4878595 55 0 0 0 0
45.012257 -0.83983213 -0.41753638 35 0 0 0 0
44.948441 -0.81807023 -1.4653991 45 0 0 0 0
44.642788 -0.76692075 -0.40530103 25 0 0 0 0
44.98811 -0.75653523 -0.38849199 69 0 0 0 0
44.629398 -0.83004534 -0.047085118 72 0 0 0 0
44.306881 -0.84024358 0.13297734 66 0 0 0 0
44.150188 -0.74327075 0.15178296 1 0 0 0 0
43.926086 -0.82763004 0.0781826 58 0 0 0 0
44.178082 -0.75714648 0.22104523 1 0 0 0 0
44.475086 -0.85134923 0.13701841 60 0 0 0 0
44.354557 -0.7422896 0.087144449 18 0 0 0 0
44.449654 -0.77905154 0.11895414 18 0 0 0 0
44.598934 -0.81467396 -0.063210063 64 0 0 0 0
44.862267 -0.84533179 0.1355115 70 0 0 0 0
44.648026 -0.75840902 0.073704369 19 0 0 0 0
44.697075 -0.78917944 -0.056051426 73 0 0 0 0
44.659504 -0.79921603 0.28164777 33 0 0 0 0
44.90797 -0.76611769 -0.017965129 15 0 0 0 0
45.114815 -0.8113234 -0.13509579 67 0 0 0 0
45.051384 -0.82311982 -0.25951764 69 0 0 0 0
44.899673 -0.81590515 -0.23814151 68 0 0 0 0
44.972744 -0.72151566 0.043722261 28 0 0 0 0
45.2449 -0.73062479 0.43754256 2 0 0 0 0
46.26487 -0.82537448 -1.1546723 24 0 0 0 0
45.334229 -0.88642913 0.68243617 63 0 0 0 0
45.615223 -2.5845089 -1.4610656 1 0 0 0 0
45.894745 -2.6840112 -1.4809766 1 0 0 0 0
45.664082 -2.724287 -1.5173509 1 0 0 0 0
45.509464 -3.1260414 -1.5221311 1 0 0 0 0
45.541351 -2.6536126 -1.5221041 3 0 0 0 0
45.354946 -2.7223413 -1.5018226 0 0 0 0 0
46.017254 -2.903758 -1.5222051 0 0 0 0 0
46.381798 -3.2478046 -1.5582376 1 0 0 0 0
46.320515 -2.6431167 -1.5756652 17 0 0 0 0
46.217419 -2.5617652 -1.5212191 4 0 0 0 0
46.518402 -2.4974644 -1.5569129 8 0 0 0 0
45.999947 -2.4985218 -1.5465431 22 0 0 0 0
45.417072 -2.5391724 -1.5509665 17 0 0 0 0
46.534176 -1.8866123 -1.5870079 36 0 0 0 0
45.999023 -2.270072 -1.5128518 1 0 0 0 0
45.497616 -0.88875341 0.54576242 56 0 0 0 0
46.077538 -0.8878184 0.30085057 78 0 0 0 0
45.559414 -0.85815388 0.33704233 69 0 0 0 0
45.289108 -0.86265755 0.26230535 54 0 0 0 0
46.095383 -0.8623805 -1.1969359 74 0 0 0 0
46.090145 -0.84897834 -1.2034708 52 0 0 0 0
45.336952 -0.85699427 0.14070378 48 0 0 0 0
45.906048 -0.85950822 0.30086175 59 0 0 0 0
45.699928 -0.87354869 0.33055034 69 0 0 0 0
46.275303 -0.83259708 0.2992602 58 0 0 0 0
45.736084 -0.87327451 0.68646544 76 0 0 0 0
45.455654 -0.88479835 0.66788739 63 0 0 0 0
45.316914 -0.84129232 0.45696115 60 0 0 0 0
45.696312 -0.86521745 0.49349251 47 0 0 0 0
45.888424 -0.83082753 0.47303492 68 0 0 0 0
45.887024 -0.85580873 0.72102755 49 0 0 0 0
46.341667 -0.83029997 0.46243489 66 0 0 0 0
46.474564 -0.84188199 0.35003746 28 0 0 0 0
45.703087 -0.74838823 -0.09589237 38 0 0 0 0
46.142502 -0.78089571 -1.145084 25 0 0 0 0
45.812248 -0.74428242 -1.1777474 2 0 0 0 0
45.686104 -0.72321457 -1.3362788 3 0 0 0 0
45.49073 -0.80337489 -1.4815322 67 0 0 0 0
45.793663 -0.80222327 -1.2255419 3 0 0 0 0
45.928928 -0.82300544 -1.2396531 19 0 0 0 0
45.8535 -0.74466842 -1.2082787 3 0 0 0 0
46.025959 -0.79162878 -1.236158 54 0 0 0 0
46.006729 -0.77065885 -1.1988689 19 0 0 0 0
45.497868 -0.80738997 -0.12997295 61 0 0 0 0
45.257839 -0.72440702 -0.79661435 82 0 0 0 0
45.265396 -0.78740048 -0.8593632 59 0 0 0 0
45.289005 -0.80039352 -0.65738827 70 0 0 0 0
45.352612 -0.81982511 -0.12684262 75 0 0 0 0
45.582851 -0.75586796 -0.74321359 25 0 0 0 0
45.542267 -0.72344947 -0.82719707 33 0 0 0 0
45.719501 -0.80433565 -0.10552268 60 0 0 0 0
46.091305 -0.73460513 -0.42181736 19 0 0 0 0
45.749493 -0.74957454 0.3413842 53 0 0 0 0
45.499386 -0.82230145 0.17591177 72 0 0 0 0
45.48233 -0.72228229 0.11308866 20 0 0 0 0
45.881908 -0.73233026 -0.063854724 16 0 0 0 0
45.690598 -0.77567577 0.64279979 69 0 0 0 0
45.544029 -0.72338343 0.54728067 110 0 0 0 0
45.693329 -0.74338955 0.46212697 69 0 0 0 0
45.902332 -0.74496287 0.72637916 41 0 0 0 0
45.873962 -0.7784071 0.49108738 62 0 0 0 0
46.269062 -0.80680227 0.1922695 34 0 0 0 0
46.060493 -0.80105358 0.48730895 45 0 0 0 0
46.114326 -0.81622231 0.18866801 58 0 0 0 0
46.090881 -0.79678023 0.50264859 43 0 0 0 0
46.496098 -0.73430836 0.3155219 70 0 0 0 0
46.470982 -0.74559581 0.15139501 37 0 0 0 0
46.452332 -0.75147462 -0.074150406 72 0 0 0 0
46.496098 -0.81983894 0.46732813 35 0 0 0 0
46.497849 -0.77279884 0.44355974 77 0 0 0 0
44.921406 -1.0839365 2.1001105 10 0 0 0 0
44.772083 -1.3271059 1.9468365 9 0 0 0 0
44.120701 -1.4946454 1.9097632 18 0 0 0 0
44.494934 -1.5544974 1.8964889 24 0 0 0 0
44.484272 -2.4104433 1.6005647 16 0 0 0 0
44.279987 -2.4309232 1.6104604 22 0 0 0 0
44.883785 -2.4851887 1.6040781 17 0 0 0 0
44.742496 -1.5537162 1.886009 22 0 0 0 0
44.291466 -1.4979433 1.8937633 20 0 0 0 0
44.806892 -1.5075451 1.9200921 24 0 0 0 0
44.262707 -1.4296343 2.0581033 26 0 0 0 0
44.086395 -1.4447947 2.039052 20 0 0 0 0
43.945889 -1.3312895 1.9974958 18 0 0 0 0
44.100239 -1.351813 1.9522849 15 0 0 0 0
44.707199 -1.4246501 2.0039048 24 0 0 0 0
44.501427 -1.4350017 2.0572925 26 0 0 0 0
44.34079 -1.3324178 2.0993998 22 0 0 0 0
44.97068 -1.4621611 2.0109062 24 0 0 0 0
44.942368 -1.3500172 1.9696429 31 0 0 0 0
44.340961 -1.3131754 1.9800593 14 0 0 0 0
44.114021 -1.1001471 2.2800682 18 0 0 0 0
44.09161 -1.1435181 2.1516356 18 0 0 0 0
43.92392 -1.1130892 2.1276193 15 0 0 0 0
44.11063 -1.2025878 2.2250011 38 0 0 0 0
44.128822 -1.3050426 2.0671136 26 0 0 0 0
44.333241 -1.1082762 2.2741699 16 0 0 0 0
44.497971 -1.2026368 2.2045493 31 0 0 0 0
44.491592 -1.1071347 2.1090307 14 0 0 0 0
44.495926 -1.3113369 1.9439417 9 0 0 0 0
44.397961 -1.184858 2.1721823 22.5 0 0 0 0
44.704411 -1.1058893 2.0794368 9 0 0 0 0
44.500622 -1.2828872 2.1146302 31 0 0 0 0
44.740246 -1.2792485 2.1164467 29 0 0 0 0
44.922855 -1.2923425 2.0983319 24 0 0 0 0
44.278561 -0.82459998 2.1596863 2 0 0 0 0
44.719933 -0.77245718 1.0461699 2 0 0 0 0
44.70491 -0.88645601 0.87930048 29 0 0 0 0
44.617092 -0.83257347 0.94782245 10 0 0 0 0
44.504444 -0.9122982 0.91022766 17.333334 0 0 0 0
44.550087 -0.79436862 1.0038583 2 0 0 0 0
44.900192 -0.78842241 0.96487504 1 0 0 0 0
44.836674 -0.87647456 0.90162563 33 0 0 0 0
44.791985 -0.7569769 0.86336046 33 0 0 0 0
44.229797 -0.84253043 1.3629926 0 0 0 0 0
44.537151 -0.89967382 1.0893036 1 0 0 0 0
44.670986 -0.83675045 1.0560524 1 0 0 0 0
44.682571 -0.83614677 1.3434846 0 0 0 0 0
44.284489 -1.0761003 2.1408954 16 0 0 0 0
44.147854 -0.83113587 2.1045568 1 0 0 0 0
44.422623 -0.81408292 2.1383774 1 0 0 0 0
44.865582 -0.81258416 2.1050146 0 0 0 0 0
44.497673 -1.0727744 2.2727559 14 0 0 0 0
44.11459 -0.92230064 2.2815166 21 0 0 0 0
44.053535 -0.96066171 2.4065387 17 0 0 0 0
43.998737 -1.0025356 2.3258836 30 0 0 0 0
44.102173 -0.78818351 2.2523117 20 0 0 0 0
44.266315 -0.90981942 2.2888794 21 0 0 0 0
44.245628 -0.73763889 2.2244875 19 0 0 0 0
44.355133 -0.76523679 2.2244971 20 0 0 0 0
44.439186 -0.74749619 2.2095895 20 0 0 0 0
44.72768 -1.0626971 2.2755647 24 0 0 0 0
44.692848 -0.97796869 2.1947496 14 0 0 0 0
44.501751 -0.91845697 2.2994261 41 0 0 0 0
44.719204 -0.93052936 2.2742307 19 0 0 0 0
44.872288 -1.060244 2.2806118 14 0 0 0 0
45.084335 -1.0705751 2.2767906 16 0 0 0 0
44.919357 -0.93992805 2.3153915 30 0 0 0 0
44.947506 -0.75638646 2.2198181 15 0 0 0 0
45.317871 -1.1015924 2.0534782 5 0 0 0 0
45.911034 -0.88836795 0.90660715 42 0 0 0 0
45.121456 -0.8143459 1.0447924 2 0 0 0 0
45.510147 -0.81817806 0.82650483 22 0 0 0 0
45.200603 -0.79631096 0.75642878 12 0 0 0 0
45.212578 -0.88694185 0.8193137 62 0 0 0 0
45.112934 -0.83814764 0.8921333 18 0 0 0 0
45.25692 -0.74476206 0.89457762 2 0 0 0 0
45.796841 -0.82224047 0.79281557 87 0 0 0 0
45.672485 -0.8639124 0.82916015 41 0 0 0 0
45.889465 -0.79073405 0.86064118 71 0 0 0 0
45.22237 -1.2810553 2.0414693 28 0 0 0 0
45.15107 -1.3760291 1.9732955 27 0 0 0 0
45.18071 -1.4412619 2.0167379 23 0 0 0 0
45.165791 -1.188056 1.9986926 4 0 0 0 0
45.405556 -1.5991383 1.9629072 27 0 0 0 0
45.316483 -1.1624035 1.9812206 4 0 0 0 0
45.321762 -1.4218781 1.9807065 28 0 0 0 0
45.418068 -1.2383198 1.9659982 3 0 0 0 0
45.859383 -1.398939 1.9881254 13 0 0 0 0
46.484657 -0.86678606 1.2648222 1 0 0 0 0
46.341652 -0.7620039 0.94095159 67 0 0 0 0
46.078842 -0.8543607 0.89856112 74 0 0 0 0
46.069 -0.78464663 0.86582005 58 0 0 0 0
46.273472 -0.84697556 0.89593279 63 0 0 0 0
46.483105 -0.76231939 0.93360329 82 0 0 0 0
46.347851 -0.77581888 0.79346609 38 0 0 0 0
46.471115 -0.87908554 0.947155 92 0 0 0 0
46.527493 -1.0433152 1.1465886 79 0 0 0 0
46.126122 -1.4707582 1.9710506 19 0 0 0 0
46.076595 -1.3428471 1.9833615 33 0 0 0 0
45.92207 -1.4462739 2.0354254 18 0 0 0 0
46.32502 -1.416849 1.9863096 28 0 0 0 0
46.292934 -1.3353801 1.9966596 23 0 0 0 0
46.133224 -1.4435334 2.0350494 19 0 0 0 0
46.506561 -1.3731395 1.9794366 23 0 0 0 0
45.920036 -1.3100374 2.1197104 21 0 0 0 0
45.497326 -1.3227874 2.0861199 23 0 0 0 0
45.255085 -1.0746117 2.2646644 15 0 0 0 0
45.10743 -1.3009311 2.0978336 32 0 0 0 0
45.327034 -1.3200395 2.0896814 30 0 0 0 0
45.127304 -1.0954174 2.1319942 27 0 0 0 0
45.284149 -0.88966757 2.2984164 15 0 0 0 0
45.112907 -0.91679865 2.3036406 21 0 0 0 0
45.281891 -0.77844512 2.2558031 14 0 0 0 0
45.346283 -0.98368728 2.1754718 16 0 0 0 0
45.733341 -1.1052004 2.144943 30.5 0 0 0 0
45.691406 -1.3211956 2.1158018 29 0 0 0 0
45.505787 -1.123054 2.1461735 37 0 0 0 0
45.85762 -1.1514137 2.1215899 26 0 0 0 0
45.529987 -1.0709156 2.2567251 22 0 0 0 0
45.65728 -1.0811135 2.2752721 22 0 0 0 0
45.528561 -0.93127942 2.2956259 28 0 0 0 0
45.688843 -0.89175832 2.2778354 18 0 0 0 0
46.526531 -1.081049 2.1478577 15 0 0 0 0
46.26717 -1.3411684 2.0927129 29 0 0 0 0
46.128567 -1.1300157 2.1371863 22 0 0 0 0
46.094788 -1.3167523 2.1267891 25 0 0 0 0
45.922035 -1.1049114 2.2355907 34 0 0 0 0
46.461987 -1.3132272 2.095139 25 0 0 0 0
46.278988 -1.4359987 2.0544319 28 0 0 0 0
46.505764 -1.4127413 2.0886371 16 0 0 0 0
46.277264 -1.1237414 2.1431334 35 0 0 0 0
46.295067 -1.1022639 2.2470794 16 0 0 0 0
46.325245 -0.91725564 2.2670095 15 0 0 0 0
46.092377 -0.96669507 2.3090336 17 0 0 0 0
45.930939 -0.91342789 2.2889521 21 0 0 0 0
46.102703 -1.0747826 2.2671676 29 0 0 0 0
46.50338 -0.95692414 2.1908867 18 0 0 0 0
46.528408 -1.0427299 2.3038745 16 0 0 0 0
46.365192 -0.7998566 2.2889643 10 0 0 0 0
46.517101 -0.90787631 2.2524245 17 0 0 0 0
48.178375 -0.74869621 0.80496877 26 0 0 0 0
47.075382 -0.84391493 -1.1264572 32 0 0 0 0
48.273636 -2.4643006 -1.5970029 1 0 0 0 0
48.019066 -3.1829648 -1.6078427 5 0 0 0 0
47.374226 -3.2195358 -1.5765959 0 0 0 0 0
46.963917 -2.6878843 -1.551912 4 0 0 0 0
47.035061 -3.1935296 -1.5948848 13 0 0 0 0
46.942345 -3.1481807 -1.6005437 10 0 0 0 0
47.266251 -3.1337767 -1.5526371 2 0 0 0 0
46.766384 -2.5078392 -1.5698804 11 0 0 0 0
46.753994 -2.6486325 -1.5736972 7 0 0 0 0
47.264156 -2.680922 -1.5660149 2 0 0 0 0
47.928177 -3.1817122 -1.5863265 6 0 0 0 0
47.749172 -3.2292521 -1.549899 5 0 0 0 0
47.70219 -3.1924055 -1.6175828 12 0 0 0 0
47.820633 -3.2217486 -1.634504 7 0 0 0 0
47.548553 -2.704721 -1.5597733 4 0 0 0 0
47.426517 -3.1574075 -1.6302769 8 0 0 0 0
47.708923 -2.6414618 -1.538035 3 0 0 0 0
48.014755 -2.5595112 -1.6069456 7 0 0 0 0
48.462723 -3.1761839 -1.6187477 9 0 0 0 0
48.141483 -2.6647022 -1.6227204 5 0 0 0 0
48.226414 -3.1357915 -1.6773205 28 0 0 0 0
48.308475 -3.1671576 -1.5782384 11 0 0 0 0
48.304569 -2.8055522 -1.5832982 1 0 0 0 0
48.369709 -2.6198995 -1.579151 1 0 0 0 0
48.370575 -2.6622529 -1.6226488 4 0 0 0 0
48.271282 -2.4644084 -1.601632 1 0 0 0 0
48.551567 -3.2503512 -1.5744622 1 0 0 0 0
48.52047 -2.8755627 -1.614254 0 0 0 0 0
48.487831 -3.1582727 -1.5960318 13 0 0 0 0
48.530636 -2.8161259 -1.5686466 0 0 0 0 0
48.792999 -3.0860498 -1.6117728 17 0 0 0 0
48.745266 -3.1009042 -1.5923865 1 0 0 0 0
48.92873 -3.1429791 -1.669161 7 0 0 0 0
48.8834 -3.1319616 -1.5816715 1 0 0 0 0
48.095581 -0.86611795 -1.5561169 76 0 0 0 0
46.955147 -1.9285001 -1.5775876 14 0 0 0 0
47.605362 -1.9545459 -1.5521616 2 0 0 0 0
47.353222 -2.4501452 -1.6057446 12 0 0 0 0
46.63765 -2.3713973 -1.5025209 1 0 0 0 0
47.541794 -2.3702822 -1.5927473 8 0 0 0 0
47.839069 -2.180861 -1.5447836 1 0 0 0 0
48.013149 -2.2391477 -1.6298058 3 0 0 0 0
47.838448 -1.9375588 -1.5682889 3 0 0 0 0
47.45031 -1.9071919 -1.5313441 2 0 0 0 0
47.263058 -1.8731505 -1.5025648 4 0 0 0 0
47.081936 -1.8737019 -1.5199633 12 0 0 0 0
46.82325 -0.85251349 -1.2013412 18 0 0 0 0
47.889938 -0.86701226 -1.5814525 68 0 0 0 0
47.689842 -0.85715419 -1.21561 45 0 0 0 0
48.090954 -0.84551263 -1.2888499 18 0 0 0 0
47.661274 -0.84683448 -1.1305915 69.666664 0 0 0 0
48.701454 -1.8498293 -1.5970519 7 0 0 0 0
48.546654 -2.2330978 -1.5765219 3 0 0 0 0
48.443302 -2.1041472 -1.5917065 1 0 0 0 0
48.404129 -2.1420062 -1.6293613 3 0 0 0 0
48.442692 -1.9026695 -1.5941535 1 0 0 0 0
48.800289 -2.1223094 -1.6120049 1 0 0 0 0
48.872311 -2.3124976 -1.6337427 2 0 0 0 0
48.684284 -2.1206317 -1.5799022 1 0 0 0 0
48.832417 -1.8799658 -1.5718428 1 0 0 0 0
48.697021 -0.85762626 -1.1899301 43 0 0 0 0
48.338535 -0.86698079 -1.4711896 35 0 0 0 0
48.257168 -0.87359905 -1.3017085 18 0 0 0 0
48.54174 -0.85160047 -1.5850022 66 0 0 0 0
48.713673 -0.85863084 -1.3620032 1 0 0 0 0
48.308872 -0.85749662 -1.1616713 24 0 0 0 0
48.135868 -0.8448267 -1.1711931 22 0 0 0 0
48.503311 -0.85687518 -1.1746966 28 0 0 0 0
48.795177 -0.87588108 -0.68372709 43 0 0 0 0
46.947796 -0.75204057 -0.20279142 42 0 0 0 0
48.100342 -0.78866011 -1.2727834 30 0 0 0 0
47.690186 -0.80924749 -0.69516796 67 0 0 0 0
47.312141 -0.80363548 -1.0835088 58 0 0 0 0
47.018337 -0.78881162 -0.68339837 69 0 0 0 0
46.599331 -0.75900036 -1.1006656 5 0 0 0 0
47.180721 -0.72843122 -1.2357539 2 0 0 0 0
47.546928 -0.80315906 -1.5860004 34 0 0 0 0
47.314148 -0.72772479 -1.6214579 36 0 0 0 0
47.468143 -0.81212211 -1.1020327 76 0 0 0 0
47.995789 -0.8231833 -1.2648618 63 0 0 0 0
47.896851 -0.74508637 -1.3969529 1 0 0 0 0
47.740646 -0.83489341 -1.6138811 59 0 0 0 0
47.764503 -0.83111054 -1.5602859 57 0 0 0 0
47.76675 -0.72843111 -1.3371803 1 0 0 0 0
47.943466 -0.81371063 -0.81787014 62 0 0 0 0
47.84827 -0.82786322 -1.1318297 34 0 0 0 0
47.795555 -0.79748207 -1.2196804 72 0 0 0 0
47.829617 -0.81142789 -0.76662976 67.5 0 0 0 0
47.890587 -0.76542097 -0.74305165 66 0 0 0 0
48.873066 -0.73355001 -0.87752259 48 0 0 0 0
48.698814 -0.75053668 -1.216616 48 0 0 0 0
48.475376 -0.7639305 -1.2051377 40 0 0 0 0
48.50499 -0.84007597 -1.3208488 6 0 0 0 0
48.617332 -0.83227742 -1.5634143 36 0 0 0 0
48.901047 -0.80734807 -1.4635599 34 0 0 0 0
48.891369 -0.7314555 -1.4759403 17 0 0 0 0
48.293797 -0.72468168 -0.33075383 32 0 0 0 0
48.230885 -0.82681715 -0.7228992 57 0 0 0 0
48.238518 -0.8053022 -0.80108505 54 0 0 0 0
48.181408 -0.75819051 -0.64916742 73 0 0 0 0
48.11462 -0.80368114 -0.57714856 72 0 0 0 0
48.47081 -0.83757532 -0.53317845 44 0 0 0 0
48.333832 -0.73613226 -0.51631057 67 0 0 0 0
48.707554 -0.7341705 -0.67405254 57 0 0 0 0
47.323772 -0.80694425 0.50887918 83 0 0 0 0
47.303551 -0.81061274 0.35297877 40 0 0 0 0
46.847572 -0.83182567 0.31924438 45 0 0 0 0
46.674149 -0.83193916 0.19145936 56 0 0 0 0
46.703011 -0.74279475 -0.046568677 82 0 0 0 0
46.663406 -0.81971163 0.31588233 45 0 0 0 0
47.167976 -0.82052064 0.31292641 63 0 0 0 0
47.119656 -0.75094879 0.33870897 91 0 0 0 0
47.268627 -0.75479949 0.32971564 93 0 0 0 0
46.877205 -0.81597185 0.48860347 44 0 0 0 0
46.720886 -0.77956176 0.4568243 62 0 0 0 0
46.760391 -0.78363097 0.38855517 68 0 0 0 0
46.827381 -0.8135941 0.41416419 65 0 0 0 0
46.703846 -0.83119833 0.48352754 34 0 0 0 0
46.983383 -0.80340278 0.39325097 83 0 0 0 0
46.881748 -0.75586593 0.51952279 2 0 0 0 0
47.033497 -0.74814355 0.43698472 3 0 0 0 0
47.322231 -0.79900789 0.78434235 26 0 0 0 0
47.731197 -0.72366846 0.53005433 60 0 0 0 0
47.642384 -0.83258414 0.46491206 47 0 0 0 0
47.686291 -0.73728436 -0.070248835 62 0 0 0 0
47.556889 -0.74864256 -0.081244446 71 0 0 0 0
47.421249 -0.80359221 0.29572761 32 0 0 0 0
47.433453 -0.77306783 0.34684214 80 0 0 0 0
47.484322 -0.81279171 0.48494831 91 0 0 0 0
47.368893 -0.78723431 0.49940401 90 0 0 0 0
47.537212 -0.7587496 0.52117538 59 0 0 0 0
47.726391 -0.78900504 0.63817984 65 0 0 0 0
47.90662 -0.76463908 0.52060831 57 0 0 0 0
47.757278 -0.74780977 0.34191829 43 0 0 0 0
47.744629 -0.8011713 0.34124732 45 0 0 0 0
47.897144 -0.76855087 0.33071128 47 0 0 0 0
48.231236 -0.81484497 0.78145075 32 0 0 0 0
48.122749 -0.81238568 0.79712975 29 0 0 0 0
48.294476 -0.80346376 0.58646047 23 0 0 0 0
48.477287 -0.72095746 0.71603727 4 0 0 0 0
48.691319 -0.77371466 0.39715001 55 0 0 0 0
47.504814 -1.1247946 2.1216588 33 0 0 0 0
46.766872 -1.3675668 1.9701507 17 0 0 0 0
46.814137 -0.75103116 1.6720012 3 0 0 0 0
46.675983 -0.89944506 1.1100053 89 0 0 0 0
46.60025 -0.81432539 0.95163 46 0 0 0 0
46.763973 -0.83131647 0.9149825 15 0 0 0 0
46.716103 -0.75585788 0.90316588 10 0 0 0 0
46.812973 -0.82809007 0.8468985 21 0 0 0 0
46.561981 -0.74763054 1.0196753 2 0 0 0 0
46.576698 -0.87300545 1.1036596 1 0 0 0 0
46.695477 -0.73324651 1.0820469 3 0 0 0 0
46.690948 -0.88403386 1.3094312 4 0 0 0 0
46.595974 -0.78455901 1.433183 1 0 0 0 0
46.614292 -0.84931797 1.3792583 83 0 0 0 0
46.57724 -0.89023262 1.4901888 3 0 0 0 0
46.721867 -0.74303854 1.2864231 28 0 0 0 0
46.847561 -0.78023702 1.2738799 0 0 0 0 0
46.691601 -0.89476752 1.508626 73 0 0 0 0
46.716427 -0.7630595 1.4727848 3 0 0 0 0
46.809647 -0.8468945 1.9344559 3 0 0 0 0
46.714275 -0.8934232 1.7103653 51 0 0 0 0
46.703007 -0.90123373 1.9119254 21 0 0 0 0
46.566734 -1.5121957 1.9666739 17 0 0 0 0
46.605499 -1.5274241 1.9682622 16 0 0 0 0
46.580303 -0.89513123 1.8030241 70 0 0 0 0
46.696972 -0.7468192 1.7313013 3 0 0 0 0
46.588081 -0.85668343 1.7231929 3 0 0 0 0
46.738811 -0.73636657 1.9011823 13 0 0 0 0
47.473648 -1.4783378 1.9089048 24 0 0 0 0
47.058723 -1.510745 1.9238727 23 0 0 0 0
46.904823 -1.5516714 1.9640144 19 0 0 0 0
47.314133 -1.5303344 1.9142805 20 0 0 0 0
47.354427 -1.6804043 1.7659037 17 0 0 0 0
47.130943 -1.3570186 1.9621738 20 0 0 0 0
46.904232 -0.8387242 1.7936249 2 0 0 0 0
47.314812 -1.3176621 1.9431241 29 0 0 0 0
47.06065 -1.0546685 2.2624686 17 0 0 0 0
46.681973 -1.1129019 2.2528148 15 0 0 0 0
46.942692 -1.3374422 1.9901104 17 0 0 0 0
46.837948 -1.4357076 2.0624747 29 0 0 0 0
46.659889 -1.4697384 2.0353086 25 0 0 0 0
47.007618 -1.4899474 2.0147176 20 0 0 0 0
46.913883 -1.2952801 2.082792 17 0 0 0 0
46.738255 -1.3013984 2.0616722 13 0 0 0 0
46.858627 -1.1135085 2.1019552 16 0 0 0 0
46.689816 -0.88662833 2.2699401 14 0 0 0 0
46.858395 -1.037932 2.2780001 25 0 0 0 0
46.692528 -1.1048672 2.1087198 15 0 0 0 0
46.902458 -0.89330071 2.155581 25 0 0 0 0
46.716454 -0.88345212 2.0764139 71 0 0 0 0
46.6082 -0.76121563 2.2805727 19 0 0 0 0
46.87458 -0.88117993 2.2984684 12 0 0 0 0
47.502575 -1.0706071 2.2155235 19 0 0 0 0
47.292793 -1.4177414 2.0040293 32 0 0 0 0
47.121181 -1.0985503 2.0870314 24 0 0 0 0
47.081787 -1.3188438 2.0758815 22 0 0 0 0
47.291855 -1.0764464 2.119776 23 0 0 0 0
47.302494 -1.2946353 2.0754974 26 0 0 0 0
47.485275 -1.1850454 1.9822234 19 0 0 0 0
47.466763 -1.2736555 2.0842445 17 0 0 0 0
47.337299 -1.0884656 2.2021546 17 0 0 0 0
47.274342 -0.93567735 2.2613804 20 0 0 0 0
47.19474 -1.023385 2.2221873 19 0 0 0 0
47.086113 -0.92082232 2.1026814 21 0 0 0 0
47.091911 -0.72287041 2.2086813 24 0 0 0 0
47.109558 -0.93016195 2.316546 17 0 0 0 0
47.295395 -0.75499052 2.2338476 26 0 0 0 0
47.294193 -0.90709466 2.1511776 36 0 0 0 0
47.487778 -0.89095563 2.1149237 21 0 0 0 0
47.491692 -0.76004493 2.2348258 24 0 0 0 0
48.228893 -0.85757393 0.90462929 13 0 0 0 0
48.138027 -1.1195717 1.9707731 18 0 0 0 0
47.969353 -1.5178075 1.7968339 22 0 0 0 0
48.096924 -0.85934615 0.89840066 24 0 0 0 0
48.063198 -1.5023139 1.7963958 22 0 0 0 0
47.675503 -1.6856148 1.7802705 19 0 0 0 0
48.121567 -0.86282301 1.0541062 4 0 0 0 0
48.213699 -0.7745958 1.0087597 17.333334 0 0 0 0
47.998127 -0.8433792 0.87663692 20 0 0 0 0
48.177017 -0.72070438 1.2280415 3 0 0 0 0
47.876263 -1.5227351 1.8565429 28 0 0 0 0
47.730671 -1.2904375 1.9062761 21 0 0 0 0
47.759449 -1.5286494 1.8791879 24 0 0 0 0
47.506378 -1.3644894 1.9235551 20 0 0 0 0
47.796425 -1.1921161 1.9633377 35 0 0 0 0
47.886883 -1.3231689 1.9151633 20 0 0 0 0
48.076618 -1.4735383 1.8083087 22 0 0 0 0
47.903759 -1.150632 1.9669943 27 0 0 0 0
48.127541 -1.3195577 1.8740206 24 0 0 0 0
47.861912 -1.2481824 2.0382352 17 0 0 0 0
47.670475 -1.0107722 2.2517502 19 0 0 0 0
47.667145 -1.1610399 1.9735098 20 0 0 0 0
47.747234 -1.2746304 2.0455482 18 0 0 0 0
47.706974 -1.0730842 2.0814998 16 0 0 0 0
47.670109 -0.94993454 2.2737179 17 0 0 0 0
47.505657 -0.94802368 2.2672613 31 0 0 0 0
47.711163 -0.94803923 2.1474659 36 0 0 0 0
47.780029 -0.72638267 2.2410841 16 0 0 0 0
48.11697 -0.91587925 2.1139805 18 0 0 0 0
48.083107 -1.2352097 2.0446784 33 0 0 0 0
47.88192 -1.0699669 2.0923073 23 0 0 0 0
48.098248 -1.1212415 2.101373 19 0 0 0 0
47.888588 -0.82610649 2.2858584 25 0 0 0 0
47.879486 -0.9112761 2.1248267 18 0 0 0 0
48.103825 -0.82592362 2.2444463 31 0 0 0 0
48.107273 -0.78311515 2.2061939 35 0 0 0 0
48.518921 -1.1150076 1.9322528 17 0 0 0 0
48.457939 -1.4969327 1.8247936 25 0 0 0 0
48.625648 -1.4006323 1.8190531 18 0 0 0 0
48.456955 -1.499139 1.7621109 29.5 0 0 0 0
48.325996 -1.5112752 1.7653139 25 0 0 0 0
48.746403 -1.4516287 1.7468001 30 0 0 0 0
48.243874 -0.74041671 1.2009679 7 0 0 0 0
48.278973 -0.84136325 1.1178875 2 0 0 0 0
48.285194 -0.72148782 1.1377587 2 0 0 0 0
48.496529 -1.3042712 1.9269751 23 0 0 0 0
48.276852 -1.2676438 1.9095924 33 0 0 0 0
48.274967 -1.4697115 1.8546587 26 0 0 0 0
48.290203 -1.1548234 1.9182388 30 0 0 0 0
48.725903 -1.2925839 1.9101871 19 0 0 0 0
48.807152 -1.4363976 1.8271283 32 0 0 0 0
48.702038 -1.1526006 1.9163442 16 0 0 0 0
48.92094 -1.1253128 1.8778268 19 0 0 0 0
48.50779 -1.0958866 2.0892591 16 0 0 0 0
48.284866 -0.9370321 2.0826585 19 0 0 0 0
48.283943 -1.2211244 2.019685 17 0 0 0 0
48.422264 -1.2569495 2.0062199 28 0 0 0 0
48.293282 -1.0901321 2.107101 15 0 0 0 0
48.41732 -0.79887313 2.2072318 18 0 0 0 0
48.475857 -0.92551363 2.0539396 16 0 0 0 0
48.288776 -0.85811275 2.2683289 24 0 0 0 0
48.448582 -0.83601856 2.2183537 27 0 0 0 0
48.68943 -1.115746 2.0587583 26 0 0 0 0
48.887848 -1.1163956 2.0593767 16 0 0 0 0
48.640564 -1.2602495 2.0071764 35 0 0 0 0
48.90419 -1.2773188 1.9332666 25 0 0 0 0
48.712475 -0.91143036 2.0909772 17 0 0 0 0
48.67519 -0.86958438 2.2472177 16 0 0 0 0
48.878197 -0.87361479 2.1426709 27 0 0 0 0
48.917294 -0.88306576 2.2167072 21 0 0 0 0
53.382008 -1.3095113 1.5964824 36 0 0 0 0
50.817715 -0.81058854 -1.4161839 60 0 0 0 0
50.458019 -1.3045423 1.7010163 41 0 0 0 0
50.557007 -0.81885952 -1.4980724 12 0 0 0 0
49.66169 -0.86125439 -1.3066797 39 0 0 0 0
50.71381 -3.1172645 -1.6890258 3 0 0 0 0
49.546337 -3.1466005 -1.7062516 23 0 0 0 0
49.274895 -3.1587305 -1.6414666 7 0 0 0 0
49.090065 -3.1555781 -1.6675397 16 0 0 0 0
49.487133 -3.2080889 -1.6221299 2 0 0 0 0
49.754269 -3.2029445 -1.6232111 3 0 0 0 0
49.72229 -3.1308541 -1.7108166 18 0 0 0 0
49.890594 -3.1386509 -1.6756353 5 0 0 0 0
49.452179 -2.7358856 -1.6326697 1 0 0 0 0
49.325428 -3.0743392 -1.5965456 8 0 0 0 0
50.58168 -3.0067289 -1.6430031 4 0 0 0 0
49.314808 -0.87600183 -1.5117452 60 0 0 0 0
49.266102 -0.87846601 -1.2889953 38 0 0 0 0
49.490795 -0.86319685 -1.5150108 80 0 0 0 0
50.115593 -0.86532688 -1.5199388 39 0 0 0 0
50.75425 -2.5012152 -1.704144 2 0 0 0 0
50.101875 -0.85168153 -1.3105595 80 0 0 0 0
49.911716 -0.83674687 -1.4673191 29 0 0 0 0
49.69276 -0.85259628 -1.5164369 25 0 0 0 0
49.509315 -0.85035306 -1.3185474 42 0 0 0 0
49.045517 -0.84412038 -1.4616362 19 0 0 0 0
49.853306 -0.84670568 -1.3235043 55 0 0 0 0
50.331264 -0.85090816 -1.4947149 51 0 0 0 0
49.958759 -0.85500365 -1.3934376 55 0 0 0 0
50.647087 -0.83059585 -1.4137863 61 0 0 0 0
49.215946 -0.8252883 -0.84958857 44 0 0 0 0
49.531651 -0.81925148 -1.1971692 68 0 0 0 0
49.135006 -0.83886343 -1.285118 40 0 0 0 0
50.649487 -0.83546001 -1.3087213 53 0 0 0 0
49.2243 -0.83677155 0.31017736 34 0 0 0 0
49.267048 -0.83658612 -0.646456 45 0 0 0 0
49.784451 -0.8208701 0.34659669 37 0 0 0 0
50.251587 -0.83033699 0.45523587 29 0 0 0 0
49.972988 -0.82520139 0.44832411 40 0 0 0 0
50.076256 -0.72990334 0.31538147 57 0 0 0 0
50.481461 -0.72889966 -1.3173659 10 0 0 0 0
50.246353 -0.75840515 -1.4823997 73 0 0 0 0
49.813053 -0.72234416 -1.5161444 2 0 0 0 0
50.684769 -0.74218851 -1.4219825 50 0 0 0 0
50.49427 -0.76737982 -1.5289948 29 0 0 0 0
50.709538 -0.73778778 -1.3220319 67 0 0 0 0
49.891888 -0.7364493 -1.190922 56 0 0 0 0
49.362347 -0.75607449 -1.1951278 64 0 0 0 0
48.957043 -0.76998264 -1.2696662 47 0 0 0 0
49.499554 -0.72513837 -1.1261188 52 0 0 0 0
50.717503 -0.74989837 0.27905393 6 0 0 0 0
50.434418 -0.80201846 -1.316998 39 0 0 0 0
49.892567 -0.72541052 0.2853339 44 0 0 0 0
50.33345 -0.7336933 0.29637787 10 0 0 0 0
50.063847 -0.81682879 0.3570841 37 0 0 0 0
49.196224 -0.79074442 0.4914889 30 0 0 0 0
49.127434 -0.76512462 0.33307895 66 0 0 0 0
49.382504 -0.7753529 0.33719462 26 0 0 0 0
49.692883 -0.75983554 0.44348669 24 0 0 0 0
49.628101 -0.80679268 0.42200866 29 0 0 0 0
49.530251 -0.81332874 0.44567114 29 0 0 0 0
49.977673 -0.81239206 0.36630106 45 0 0 0 0
49.887821 -0.73048973 0.50182831 51 0 0 0 0
49.853615 -0.77170688 0.64100266 34 0 0 0 0
50.468357 -0.76465058 0.50755304 49 0 0 0 0
50.25478 -0.73336172 0.49024126 50 0 0 0 0
50.174702 -0.7852841 0.47176114 62 0 0 0 0
50.299492 -0.802894 0.38826719 50 0 0 0 0
50.568218 -0.75866479 0.66687626 36 0 0 0 0
50.534279 -0.80113024 0.51382977 74 0 0 0 0
50.712227 -0.81302834 0.57372689 48 0 0 0 0
50.631138 -0.8082301 0.66775656 39 0 0 0 0
49.835217 -0.94867051 1.9459025 18 0 0 0 0
49.327 -1.073545 2.0484617 27 0 0 0 0
49.306038 -1.0919517 1.9188451 41 0 0 0 0
48.969543 -1.2978328 1.7983985 37 0 0 0 0
49.225231 -1.4255378 1.8597099 36 0 0 0 0
49.100288 -1.4289249 1.8215808 34 0 0 0 0
49.287178 -1.4261378 1.7443519 34 0 0 0 0
49.105457 -1.2675329 1.8899705 16 0 0 0 0
49.249302 -1.270368 1.905686 21 0 0 0 0
49.12624 -1.1015056 1.9275917 23 0 0 0 0
49.121601 -0.91466975 2.1584673 21 0 0 0 0
49.162266 -0.96913445 1.9906566 16 0 0 0 0
49.10807 -1.0655211 2.0855746 24 0 0 0 0
49.252365 -0.99813747 1.9605376 17 0 0 0 0
49.089046 -0.73242003 2.0711808 38 0 0 0 0
49.014267 -0.84920466 2.2370987 32 0 0 0 0
49.285706 -0.8852998 2.1532729 26 0 0 0 0
49.305622 -0.75952244 2.0644007 12 0 0 0 0
49.467842 -1.1172452 1.9008679 42 0 0 0 0
49.479141 -1.2890666 1.878876 25 0 0 0 0
49.426987 -1.2985756 1.7686229 16 0 0 0 0
49.447239 -1.4034333 1.8308194 36 0 0 0 0
49.350296 -1.2804997 1.7774332 19 0 0 0 0
49.711464 -1.3119301 1.7629589 40 0 0 0 0
49.768551 -1.4040668 1.7510858 36 0 0 0 0
49.697567 -1.3060985 1.8788167 19 0 0 0 0
49.700504 -0.96523315 1.9776498 16 0 0 0 0
49.688534 -1.1117737 2.0395799 15 0 0 0 0
49.454517 -1.0511253 2.0677612 18 0 0 0 0
49.708935 -1.0885472 1.9178841 38 0 0 0 0
49.525574 -0.92752242 1.9994149 15 0 0 0 0
49.497093 -0.87506646 2.1004345 31 0 0 0 0
49.675976 -0.88841242 2.110399 29 0 0 0 0
49.669708 -0.76807654 2.0358984 20 0 0 0 0
50.311008 -0.9389292 2.0755715 26 0 0 0 0
49.928074 -1.1094207 1.9070069 29 0 0 0 0
50.107025 -1.3519031 1.7293929 33 0 0 0 0
49.915565 -1.2889262 1.9093882 17 0 0 0 0
50.049194 -1.285099 1.8999839 16 0 0 0 0
49.96027 -1.2934896 1.7948728 22 0 0 0 0
50.148262 -1.1758703 1.7870363 36 0 0 0 0
50.261894 -1.2960585 1.8773638 17 0 0 0 0
50.21455 -1.1297059 1.7953122 17 0 0 0 0
50.086815 -0.84977651 2.1027019 18 0 0 0 0
49.925076 -1.0460939 2.0567985 16 0 0 0 0
50.051163 -1.051828 2.052043 23 0 0 0 0
49.899387 -0.85798556 2.0829175 31 0 0 0 0
50.108177 -1.0715297 1.9035184 42 0 0 0 0
50.291725 -1.1046352 1.8611616 22 0 0 0 0
50.103374 -0.74815184 2.0078239 26 0 0 0 0
50.260361 -0.80557579 1.8999041 4 0 0 0 0
50.356358 -1.0695393 2.0475016 19 0 0 0 0
50.534161 -1.1104895 1.7980562 16 0 0 0 0
50.506977 -1.2726246 1.8683859 36 0 0 0 0
50.329716 -1.279634 1.7399416 32 0 0 0 0
50.505207 -1.0729691 1.8814257 39 0 0 0 0
50.74551 -1.2484416 1.8915635 37 0 0 0 0
50.706226 -1.3050715 1.7318715 36 0 0 0 0
50.714794 -1.1828495 1.7763808 21 0 0 0 0
50.705006 -1.1146686 1.9075477 14 0 0 0 0
50.502083 -0.9447118 1.9208274 15 0 0 0 0
50.452431 -0.8880384 2.1107576 36 0 0 0 0
50.472366 -1.0649147 2.0134871 17 0 0 0 0
50.348301 -0.75380182 2.0105195 8 0 0 0 0
50.606514 -0.7945174 2.0348992 17 0 0 0 0
50.674217 -0.96365297 1.9047787 16 0 0 0 0
50.524849 -0.78415966 2.0670488 21 0 0 0 0
50.710739 -0.89971453 2.1045473 27 0 0 0 0
51.505154 -1.2829677 1.7136786 29 0 0 0 0
52.437 -0.75380629 0.34463811 34 0 0 0 0
51.93911 -2.5024164 -1.7584924 5 0 0 0 0
51.754883 -0.80130893 -1.346504 42 0 0 0 0
50.914349 -2.5330052 -1.7233542 2 0 0 0 0
51.678719 -2.6672177 -1.7329295 1 0 0 0 0
50.912506 -3.0856237 -1.7073907 3 0 0 0 0
51.374985 -2.6350262 -1.7437415 3 0 0 0 0
51.80798 -2.6191199 -1.7163674 3 0 0 0 0
51.469273 -0.81565088 -1.447763 26 0 0 0 0
51.654587 -0.81844604 -1.5644341 39 0 0 0 0
51.839432 -1.9121523 -1.6536989 1 0 0 0 0
51.027355 -0.81981206 0.063818492 23 0 0 0 0
50.844894 -0.72526264 -1.2962841 29 0 0 0 0
51.37632 -0.75432849 -1.4558357 40 0 0 0 0
51.056019 -0.73189563 -1.4057722 36 0 0 0 0
51.474606 -0.79291308 -1.5079683 17 0 0 0 0
51.553238 -0.7483266 0.1080498 34 0 0 0 0
51.368778 -0.72280532 -1.0151353 36 0 0 0 0
51.107876 -0.72443891 0.27738079 6 0 0 0 0
51.710026 -0.72792804 0.13284253 32 0 0 0 0
51.90601 -0.72144777 0.24407804 40 0 0 0 0
53.183052 -0.80889964 -1.5135276 56 0 0 0 0
52.96212 -1.8656267 -1.7690734 2 0 0 0 0
52.611637 -2.5435681 -1.7709742 2 0 0 0 0
52.750061 -3.1243019 -1.7554612 1 0 0 0 0
52.566872 -2.5152614 -1.7198237 1 0 0 0 0
52.407654 -0.81931299 -1.4668289 61 0 0 0 0
52.237911 -0.81431204 -1.4810783 28 0 0 0 0
53.263775 -0.81948096 -1.622726 28 0 0 0 0
52.838268 -0.81807911 -1.5596013 75 0 0 0 0
53.057617 -0.72718799 -1.5378637 34 0 0 0 0
52.517475 -0.75539297 -1.4790335 30 0 0 0 0
53.244442 -0.73931241 -1.506881 37 0 0 0 0
52.108559 -0.72465414 -1.4116639 54 0 0 0 0
51.952019 -0.79155755 -1.414713 50 0 0 0 0
52.328621 -0.76640135 0.28171161 30 0 0 0 0
52.666206 -0.73046023 0.31927079 29 0 0 0 0
52.454262 -1.2747786 1.6950841 17 0 0 0 0
51.256271 -0.81491154 0.56001437 57 0 0 0 0
51.157738 -0.82985306 0.79271281 30 0 0 0 0
50.91964 -0.72191703 0.70235431 28 0 0 0 0
50.900501 -0.80000311 0.49969456 35 0 0 0 0
50.841015 -0.80954659 0.72152859 31 0 0 0 0
50.910599 -1.3078252 1.6978488 33 0 0 0 0
51.122112 -0.84710002 0.88680822 15 0 0 0 0
51.077187 -1.2582371 1.7019635 33 0 0 0 0
52.052387 -0.78172076 0.44867167 40 0 0 0 0
51.925518 -0.74725741 0.40524337 29 0 0 0 0
51.468544 -0.72644305 0.43285012 60 0 0 0 0
52.268486 -0.76120514 0.41069797 41 0 0 0 0
51.872475 -1.2556475 1.6751107 28 0 0 0 0
51.319641 -1.1041127 1.6939106 16 0 0 0 0
51.936893 -1.1505113 1.7060853 15 0 0 0 0
52.041096 -1.1121488 1.6949298 43 0 0 0 0
52.161449 -1.4166514 1.6877074 27 0 0 0 0
53.29565 -1.4380074 1.6117767 37 0 0 0 0
53.10511 -1.154287 1.561072 4 0 0 0 0
52.92498 -0.73764092 0.3659234 42 0 0 0 0
52.675797 -0.73767561 0.52839011 32 0 0 0 0
53.278183 -1.129272 1.5489604 3 0 0 0 0
52.994118 -1.4203691 1.6022893 38 0 0 0 0
52.90237 -1.2018982 1.5786852 5 0 0 0 0
53.0439 -1.2816207 1.5846157 9 0 0 0 0
53.195625 -1.3649616 1.5766686 32 0 0 0 0
53.067444 -1.1390506 1.6883404 34 0 0 0 0
52.860104 -0.99075824 1.705484 10 0 0 0 0
52.654732 -0.98220468 1.7047452 13 0 0 0 0
52.904858 -1.0981401 1.6808723 14 0 0 0 0
53.157436 -1.2693866 1.6938039 30 0 0 0 0
53.294498 -1.3156168 1.6654783 33 0 0 0 0
53.119835 -0.99258137 1.70609 9 0 0 0 0
53.306217 -1.0983013 1.67848 3 0 0 0 0
51.904377 -0.89977854 1.8997744 29 0 0 0 0
51.317574 -1.2767273 1.7191 28 0 0 0 0
51.066353 -1.0860887 1.893873 33 0 0 0 0
50.940716 -1.2802608 1.8336784 33 0 0 0 0
50.897804 -1.13363 1.7828153 18 0 0 0 0
50.880314 -1.4161855 1.7328914 23 0 0 0 0
50.894695 -1.1327808 1.9001243 17 0 0 0 0
51.089878 -1.1423979 1.7674237 43 0 0 0 0
51.042721 -1.2811762 1.816165 39 0 0 0 0
51.290211 -1.2668263 1.8026156 24 0 0 0 0
51.046692 -0.88644332 1.9184015 37 0 0 0 0
50.893734 -0.79049492 2.0088627 16 0 0 0 0
50.887325 -0.89866978 1.9437863 31 0 0 0 0
50.91415 -0.92232603 2.0838821 36 0 0 0 0
51.063759 -0.90128529 2.0984447 22 0 0 0 0
51.050411 -0.78545183 2.0473976 17 0 0 0 0
51.080002 -0.72711533 1.8783703 30 0 0 0 0
51.309818 -0.86494732 2.0738709 15 0 0 0 0
51.654522 -1.3053141 1.7457447 22 0 0 0 0
51.453381 -1.1151888 1.7269789 16 0 0 0 0
51.477276 -1.2014186 1.8249942 26 0 0 0 0
51.332645 -1.1237453 1.8878413 19 0 0 0 0
51.488586 -1.1355791 1.8482144 26 0 0 0 0
51.411484 -0.76006871 2.0037594 42 0 0 0 0
51.32576 -0.92775238 1.9739491 40 0 0 0 0
51.508743 -0.93432337 1.9152867 26 0 0 0 0
51.534996 -0.88224524 2.0478151 41 0 0 0 0
51.667492 -1.0775129 1.7466444 15 0 0 0 0
51.743984 -1.097132 1.8987969 17 0 0 0 0
51.704975 -1.2118621 1.8052926 14 0 0 0 0
51.903759 -1.2099643 1.8210325 13 0 0 0 0
51.730652 -0.87905908 1.9494317 27 0 0 0 0
51.862617 -1.0716429 1.9033854 14 0 0 0 0
51.732197 -0.85492367 2.0782907 17 0 0 0 0
51.875534 -0.86590153 2.0934939 21 0 0 0 0
52.678974 -1.0988933 1.8486372 14 0 0 0 0
52.283443 -1.1041712 1.8210007 14 0 0 0 0
52.26387 -0.93798327 1.8856077 30 0 0 0 0
52.17252 -1.22058 1.8101833 33 0 0 0 0
52.111565 -1.3046774 1.7528515 19 0 0 0 0
52.08522 -1.1122302 1.8555259 14 0 0 0 0
52.090744 -0.8534658 2.0597439 27 0 0 0 0
51.911098 -0.72545755 1.871487 25 0 0 0 0
52.100178 -0.875112 1.880977 25 0 0 0 0
52.445301 -1.1052243 1.8472979 36 0 0 0 0
52.313801 -1.3055218 1.7339059 29 0 0 0 0
52.286846 -1.1084723 1.719344 13 0 0 0 0
52.497337 -1.1347499 1.7154086 15 0 0 0 0
52.444565 -0.73039174 1.8796304 6 0 0 0 0
52.319561 -0.87604403 2.0540819 27 0 0 0 0
52.51696 -0.89286727 1.8750643 14 0 0 0 0
52.516766 -0.85737616 2.0084748 14 0 0 0 0
52.666306 -0.76989508 1.9064671 33 0 0 0 0
53.046627 -1.1020608 1.819751 7 0 0 0 0
52.71019 -1.1252328 1.7179027 11 0 0 0 0
52.860382 -1.1400913 1.8761992 34 0 0 0 0
52.681965 -1.325507 1.7380866 36 0 0 0 0
52.897556 -1.2739114 1.7190076 17 0 0 0 0
52.723339 -0.89872557 1.8882716 37 0 0 0 0
52.719151 -0.8399508 2.0147958 41 0 0 0 0
52.899315 -0.91863585 1.9077395 18 0 0 0 0
52.940468 -0.83908165 2.0507071 11 0 0 0 0
53.100857 -0.86585408 1.8663238 16 0 0 0 0
53.255241 -0.93059045 1.7715013 28 0 0 0 0
53.268051 -1.0740124 1.8295181 32 0 0 0 0
53.308521 -0.87660605 1.9273037 13.666667 0 0 0 0
53.164722 -0.78887129 1.9008576 16 0 0 0 0
53.128586 -0.83435124 2.0236392 13 0 0 0 0
53.224949 -0.78620952 1.9330348 34 0 0 0 0
53.280972 -0.84521645 2.0175259 12 0 0 0 0
55.958759 -1.1392483 1.6978329 30 0 0 0 0
53.56992 -1.32544 1.6744794 33 0 0 0 0
54.115623 -0.72968602 -1.505486 57 0 0 0 0
54.970547 -0.82555825 -1.6712813 61 0 0 0 0
55.328114 -2.4150078 -1.922711 4 0 0 0 0
53.907265 -2.4235995 -1.700593 5 0 0 0 0
53.630383 -3.0742586 -1.8344402 3 0 0 0 0
53.495548 -3.1990027 -1.8153414 1 0 0 0 0
53.8694 -2.5091023 -1.8116046 2 0 0 0 0
55.131313 -3.0735419 -1.9193745 3 0 0 0 0
54.031292 -2.5450966 -1.8139147 1 0 0 0 0
55.536385 -2.6714935 -1.8987445 2 0 0 0 0
54.039757 -1.8946941 -1.8502645 10 0 0 0 0
53.942448 -2.373812 -1.8050228 22 0 0 0 0
53.83596 -2.3045433 -1.7388949 1 0 0 0 0
54.416924 -1.9587252 -1.8045678 1 0 0 0 0
53.928829 -1.8001887 -1.7942773 8 0 0 0 0
54.350994 -1.881212 -1.8279418 2 0 0 0 0
53.800232 -0.8281641 -1.6059098 46 0 0 0 0
54.541607 -0.85124618 -1.5176566 23 0 0 0 0
54.264439 -0.81494945 -1.6839978 35 0 0 0 0
54.04707 -0.74101931 -1.632259 37 0 0 0 0
53.645638 -0.82260036 -1.514827 51 0 0 0 0
53.487518 -0.73040885 -1.5332153 52 0 0 0 0
53.77359 -0.74933499 -1.5592974 35 0 0 0 0
54.194351 -0.79100537 -1.6170764 36 0 0 0 0
54.061172 -0.80158126 -1.6456606 51 0 0 0 0
54.206146 -0.80793083 -1.5215433 59 0 0 0 0
55.042683 -0.81131148 -1.6003038 56 0 0 0 0
54.656658 -0.81473964 -1.6231315 64 0 0 0 0
54.320175 -0.72326744 -1.6823121 42 0 0 0 0
54.656834 -0.809488 -1.5728343 58 0 0 0 0
55.247108 -0.80919319 -1.6882579 36 0 0 0 0
55.123894 -0.7295984 -1.5353397 12 0 0 0 0
55.511795 -0.74463433 -1.7307215 66 0 0 0 0
55.672352 -0.7635954 -1.6805545 41 0 0 0 0
55.917439 -1.115152 1.575128 21 0 0 0 0
54.85886 -1.3366022 1.5189198 34 0 0 0 0
54.184738 -0.80921984 -1.4571987 25 0 0 0 0
54.259319 -0.72672582 -1.4698942 34 0 0 0 0
53.709755 -0.72990227 -1.4844681 47 0 0 0 0
54.502888 -0.73496193 -1.489673 51 0 0 0 0
55.039227 -1.2108288 1.496347 7 0 0 0 0
53.543221 -0.72409219 -1.308656 40 0 0 0 0
55.246719 -1.288314 1.5188683 30 0 0 0 0
55.377384 -1.0956907 1.5539824 3 0 0 0 0
54.703354 -1.3104563 1.5407157 38 0 0 0 0
54.357639 -1.3152958 1.5674394 35 0 0 0 0
55.085094 -1.1068779 1.5692008 18 0 0 0 0
55.495869 -1.2204185 1.530229 20 0 0 0 0
55.454731 -1.1308233 1.55636 12 0 0 0 0
55.712593 -1.2604861 1.5678543 11 0 0 0 0
55.700466 -1.0978091 1.5652602 5 0 0 0 0
54.406864 -1.2485756 1.5860351 40 0 0 0 0
53.836308 -0.9788754 1.6623594 22 0 0 0 0
53.630749 -1.0820521 1.5886258 3 0 0 0 0
53.645321 -1.2727783 1.5939522 38 0 0 0 0
53.462906 -1.0731651 1.5818998 3 0 0 0 0
54.05854 -1.3279672 1.6463796 35 0 0 0 0
54.061363 -1.3394048 1.5842946 37 0 0 0 0
53.931835 -1.2741495 1.5980632 35 0 0 0 0
54.921413 -1.0831306 1.6596621 9 0 0 0 0
54.850445 -1.0974798 1.5999962 28 0 0 0 0
54.690414 -1.1712363 1.6526629 9 0 0 0 0
54.900944 -1.2470934 1.6685104 23 0 0 0 0
55.420681 -1.2483692 1.6665621 6 0 0 0 0
55.259552 -1.2386228 1.6672794 9 0 0 0 0
55.479507 -1.0767702 1.664843 37 0 0 0 0
55.849258 -1.2392201 1.6378859 36 0 0 0 0
54.692223 -0.91610384 1.8963085 15 0 0 0 0
54.06118 -0.77538139 1.9263606 24 0 0 0 0
53.69865 -0.90442628 1.897289 13 0 0 0 0
53.498569 -0.99793988 1.7114035 9 0 0 0 0
53.482002 -1.0481734 1.8319991 32 0 0 0 0
53.467873 -1.0719323 1.7374146 33 0 0 0 0
53.696915 -1.0932662 1.6998994 29 0 0 0 0
53.623436 -0.84979582 1.7971559 10 0 0 0 0
53.486984 -0.9083637 1.8636481 19 0 0 0 0
53.683025 -0.72481096 1.8268358 5 0 0 0 0
53.704853 -1.0199952 1.8690063 34 0 0 0 0
53.884937 -1.0484505 1.8375291 40 0 0 0 0
53.896484 -1.0487313 1.7296875 37 0 0 0 0
54.047981 -1.0875015 1.9186406 19 0 0 0 0
53.896229 -0.93129253 1.8938186 16 0 0 0 0
53.734768 -0.85417515 1.7768348 8 0 0 0 0
53.778881 -0.86040056 2.0276158 14 0 0 0 0
53.862881 -0.72402579 1.9164234 37 0 0 0 0
54.115654 -0.90982974 1.7959881 11 0 0 0 0
54.333252 -1.0916729 1.8105736 38 0 0 0 0
54.305054 -1.1432563 1.7595938 39 0 0 0 0
54.225464 -1.2850296 1.6852498 13 0 0 0 0
54.08147 -1.1210599 1.6875212 31 0 0 0 0
54.489323 -1.2371136 1.6783174 19 0 0 0 0
54.430721 -1.0739336 1.805529 37 0 0 0 0
54.304127 -0.92066514 1.9246571 17 0 0 0 0
54.566292 -1.0784979 1.7295042 34 0 0 0 0
54.479568 -0.93503296 1.7393168 13 0 0 0 0
54.280529 -0.73363668 1.7471802 6 0 0 0 0
54.092064 -0.89434123 1.9012697 9 0 0 0 0
54.263039 -0.86599845 1.7646383 9 0 0 0 0
54.121304 -0.84684521 2.0024776 10 0 0 0 0
54.378639 -0.72689527 1.8831646 35 0 0 0 0
54.316734 -0.80887723 2.0248909 23 0 0 0 0
54.467499 -0.90423733 1.8926907 25 0 0 0 0
54.508362 -0.75493044 1.9191701 10 0 0 0 0
55.145683 -1.009642 1.8424513 31 0 0 0 0
55.137875 -0.97335237 1.7404007 39 0 0 0 0
54.809055 -0.99186963 1.7438334 21 0 0 0 0
54.794876 -1.0301341 1.801922 37 0 0 0 0
54.721443 -1.2083253 1.6838195 26 0 0 0 0
54.70496 -1.0197502 1.8368584 34 0 0 0 0
55.079075 -1.1273274 1.6916726 10 0 0 0 0
55.098164 -1.2801615 1.6804389 5 0 0 0 0
54.947372 -1.0239195 1.8110197 13 0 0 0 0
54.932243 -0.90133631 1.8898717 25 0 0 0 0
54.763359 -0.75970036 1.8700693 9 0 0 0 0
54.698555 -0.8819986 1.7376233 16 0 0 0 0
54.860165 -0.75059819 1.8861941 9 0 0 0 0
55.103203 -0.8981775 1.9198431 43 0 0 0 0
55.008293 -0.96602345 1.7805122 38 0 0 0 0
54.945221 -0.86204994 1.7430204 17 0 0 0 0
55.053204 -0.76934266 1.8708398 14 0 0 0 0
55.665493 -0.74957877 1.932882 7 0 0 0 0
55.322353 -0.91000825 1.7923871 25.5 0 0 0 0
55.314213 -1.0196687 1.8131374 29 0 0 0 0
55.323483 -1.0958951 1.7439884 36 0 0 0 0
55.484943 -0.91852033 1.9030277 20 0 0 0 0
55.351887 -0.77705258 1.8592308 12 0 0 0 0
55.302792 -0.90466911 1.8826895 22 0 0 0 0
55.4697 -0.90298009 1.7494607 12 0 0 0 0
55.439404 -0.78666085 1.8814164 28 0 0 0 0
55.737244 -0.90166664 1.8625956 35 0 0 0 0
55.732269 -0.93270379 1.7155406 17 0 0 0 0
55.682648 -1.0643196 1.6985986 17 0 0 0 0
55.887383 -1.0748329 1.821357 19 0 0 0 0
55.87534 -0.89126235 1.7263126 13 0 0 0 0
55.898678 -0.90047753 1.8502921 16 0 0 0 0
55.758678 -0.72344387 1.7893854 13 0 0 0 0
55.921169 -0.76379377 1.8849463 13 0 0 0 0
58.25024 -1.2373173 1.5770514 12 0 0 0 0
57.278259 -0.94492698 0.50320792 81 0 0 0 0
57.748875 -2.9812024 -2.0025525 40 0 0 0 0
56.764252 -0.80153173 -1.7123429 87 0 0 0 0
57.687889 -3.0508015 -2.0075853 5 0 0 0 0
56.858353 -3.1501739 -1.9150263 1 0 0 0 0
56.335487 -3.1282697 -1.9518623 6 0 0 0 0
57.068604 -3.1559942 -1.9267097 6 0 0 0 0
57.55032 -2.5983498 -1.9452063 2 0 0 0 0
56.704933 -2.990355 -1.9320121 6 0 0 0 0
56.699394 -0.77299201 -1.8173764 59 0 0 0 0
56.069054 -0.72824782 -1.5772094 44 0 0 0 0
56.124683 -0.72814995 -1.6900473 78 0 0 0 0
56.469936 -0.72230744 -1.7079284 57 0 0 0 0
56.28875 -0.73138922 -1.6803871 51 0 0 0 0
57.709442 -0.72282422 0.33466983 67 0 0 0 0
57.096516 -0.7401219 -0.12349564 44 0 0 0 0
57.055122 -0.74668092 0.056855131 37 0 0 0 0
57.342266 -0.73861778 0.5024789 87 0 0 0 0
57.658611 -0.83769786 0.47517681 30 0 0 0 0
57.942802 -3.0355113 -1.943236 2 0 0 0 0
58.838791 -2.5971081 -1.9526953 4 0 0 0 0
58.299957 -2.9894323 -1.9790834 8 0 0 0 0
57.947521 -3.0576818 -2.022115 6 0 0 0 0
58.357456 -2.9239144 -2.0260057 12 0 0 0 0
58.950432 -3.0811377 -2.0273337 14 0 0 0 0
59.07679 -3.1352756 -1.9461401 1 0 0 0 0
