# .PCD v0.7 - Point Cloud Data file format
VERSION 0.7
FIELDS x y z intensity normal_x normal_y normal_z curvature
SIZE 4 4 4 4 4 4 4 4
TYPE F F F F F F F F
COUNT 1 1 1 1 1 1 1 1
WIDTH 1172
HEIGHT 1
VIEWPOINT 0 0 0 1 0 0 0
POINTS 1172
DATA ascii
37.267853 4.6928253 -0.50689405 11 0 0 0 0
38.262875 5.1655979 -0.53081781 17 0 0 0 0
38.088909 5.0918226 -1.4071071 1 0 0 0 0
37.881039 4.9385185 -0.48547912 8 0 0 0 0
38.356426 4.7359715 -1.3424343 7 0 0 0 0
38.71859 5.3410497 -1.3503834 6 0 0 0 0
38.618958 5.123229 -1.5113631 13 0 0 0 0
38.653072 5.6918702 -1.3518661 7 0 0 0 0
38.812954 4.8372526 -0.57413256 1 0 0 0 0
38.662895 5.2518377 -0.54942226 12 0 0 0 0
39.149727 4.9619727 -0.52375191 4 0 0 0 0
40.241116 5.3165874 -0.86020207 14 0 0 0 0
38.392986 5.1668134 1.241071 13 0 0 0 0
37.843777 5.2729487 1.2525014 13 0 0 0 0
37.242641 5.3175039 0.94848156 4 0 0 0 0
36.709389 5.390645 1.225832 31 0 0 0 0
36.780945 5.5706744 1.234203 14 0 0 0 0
37.435986 4.9819117 1.2332288 17 0 0 0 0
37.89127 4.7887225 1.2451932 24 0 0 0 0
37.259022 5.2617717 2.9330523 7 0 0 0 0
38.069546 4.8329682 1.2538679 13 0 0 0 0
37.351608 5.7042522 2.1100829 1 0 0 0 0
37.549133 4.9055119 3.0475817 1 0 0 0 0
37.240211 5.4472098 3.046834 1 0 0 0 0
37.109642 5.3417811 3.9154506 4 0 0 0 0
39.191704 5.3088861 1.216305 11 0 0 0 0
38.752045 5.2352223 1.2231617 18 0 0 0 0
38.508976 4.9401689 1.2381114 2 0 0 0 0
38.671341 5.573669 1.2478081 11 0 0 0 0
39.606396 4.8359456 1.3682032 22 0 0 0 0
39.44693 4.7101502 1.347551 8.5 0 0 0 0
39.718769 5.2841573 1.2902716 29 0 0 0 0
40.161755 5.2499189 1.2913584 7 0 0 0 0
42.651588 5.3200154 0.4746564 30 0 0 0 0
42.323544 5.5205917 -0.88043034 32 0 0 0 0
41.666489 5.2485256 -1.499493 3 0 0 0 0
41.257469 5.0562401 -1.5176879 1 0 0 0 0
41.468651 4.8894401 -1.526123 23 0 0 0 0
41.644806 5.3326435 -1.544109 14 0 0 0 0
41.788395 4.7297387 -1.5403305 7 0 0 0 0
41.691685 5.6023669 -1.5661067 10 0 0 0 0
42.915535 5.4795446 -1.0082324 30 0 0 0 0
41.849648 5.2486725 -0.58900756 23 0 0 0 0
42.240211 5.1973591 -0.78031427 32 0 0 0 0
42.211269 4.8432212 -0.67046559 30 0 0 0 0
42.75462 5.1938682 -0.63620436 20 0 0 0 0
42.822746 5.7073426 0.36151651 35 0 0 0 0
41.831039 4.7858815 -0.57589287 9 0 0 0 0
42.88459 4.7784719 -0.52522171 24 0 0 0 0
42.544338 5.5836978 0.50983703 23 0 0 0 0
42.409801 5.6026769 0.50762981 17 0 0 0 0
42.178093 5.2277613 1.5384134 14 0 0 0 0
40.528427 5.6721249 1.2927703 14 0 0 0 0
42.40229 4.7797565 1.5531325 17 0 0 0 0
42.488579 4.8260455 0.52653289 22 0 0 0 0
42.425774 5.36273 0.50935185 24 0 0 0 0
42.437664 4.8816924 1.4437077 30 0 0 0 0
43.16687 5.3246975 1.4575742 36 0 0 0 0
42.764374 5.1982889 0.51717049 12 0 0 0 0
42.742764 4.7885118 0.51596779 19 0 0 0 0
42.697422 4.8661833 1.455165 32 0 0 0 0
43.254635 4.7718554 1.4614847 37 0 0 0 0
42.795902 4.7444096 1.5407082 13 0 0 0 0
42.741184 5.2521696 1.4873993 29 0 0 0 0
42.860878 5.6806931 1.5128963 29 0 0 0 0
45.042271 5.1156273 -0.98082876 1 0 0 0 0
44.836777 5.6655498 -1.0398484 1 0 0 0 0
44.378929 4.9384389 -1.0988042 1 0 0 0 0
43.799461 5.3771625 -1.414813 1 0 0 0 0
43.311424 5.2936263 -1.0696297 34 0 0 0 0
44.026188 5.394135 -1.657315 2 0 0 0 0
44.049362 5.3687258 -1.1165816 1 0 0 0 0
44.625175 4.7462559 -1.3066733 2 0 0 0 0
44.769402 4.693202 -1.6944172 40 0 0 0 0
44.750122 5.4205799 -1.9230112 1 0 0 0 0
44.86821 5.6567206 -1.8449738 1 0 0 0 0
43.766422 5.3456836 -0.70505506 36 0 0 0 0
43.711399 4.7675538 -0.73227644 35 0 0 0 0
43.341339 4.7121835 -0.60399419 35 0 0 0 0
43.528664 4.8910737 -1.0058359 1 0 0 0 0
43.260983 5.2590766 -0.58977813 36 0 0 0 0
44.622894 5.096601 -0.69579113 25 0 0 0 0
44.357868 5.2018766 -0.88851744 20 0 0 0 0
44.811825 5.2005258 -1.0346628 1 0 0 0 0
44.309547 4.7122869 -0.61953646 26 0 0 0 0
44.961304 5.2554121 -0.04054898 1 0 0 0 0
45.930923 5.6612115 -1.6816798 1 0 0 0 0
45.659275 5.3345923 -0.96008015 11 0 0 0 0
45.250252 4.7456565 -1.7029394 7 0 0 0 0
45.716206 4.827517 -1.8569883 1 0 0 0 0
45.709557 5.3107142 -1.8447906 1 0 0 0 0
45.136833 5.2113643 -1.852628 1 0 0 0 0
45.414112 5.6916928 -1.1228994 1 0 0 0 0
45.349579 5.2636747 -0.13676076 1 0 0 0 0
45.180363 4.79667 -0.81064403 1 0 0 0 0
45.652859 5.2443786 -0.24838062 1 0 0 0 0
45.333321 5.5290508 -0.95672125 3 0 0 0 0
45.686897 5.6942611 -0.19546567 36 0 0 0 0
46.609253 4.8966594 -1.4979324 4 0 0 0 0
46.282978 4.6922598 -1.931437 1 0 0 0 0
46.705093 5.1925392 -1.6129522 11 0 0 0 0
46.568878 4.7688346 -1.8736106 1 0 0 0 0
47.079712 5.3827491 -1.7082345 1 0 0 0 0
46.297401 5.706109 -1.2829909 11 0 0 0 0
46.525349 5.2629828 -1.2874173 4 0 0 0 0
46.631542 5.6035085 -1.4594903 1 0 0 0 0
46.307095 5.1446829 -1.2725911 14 0 0 0 0
46.043472 5.2379556 -0.2014665 2 0 0 0 0
43.265514 5.3097677 1.5339649 29 0 0 0 0
43.707504 4.7853246 0.3083398 32 0 0 0 0
43.628418 5.4410601 0.53711146 20 0 0 0 0
43.375118 5.272953 0.536982 26.5 0 0 0 0
43.292377 4.6928434 0.391085 37 0 0 0 0
43.48354 5.4566202 0.4972387 32 0 0 0 0
43.267593 5.677784 0.53146666 30 0 0 0 0
43.680874 5.2948236 1.4487234 23 0 0 0 0
43.340794 4.8154926 0.54142654 29 0 0 0 0
43.635933 5.5689883 0.53882438 25 0 0 0 0
43.705742 4.8043776 1.4527805 1 0 0 0 0
43.279095 5.6825004 1.5278989 28 0 0 0 0
44.275528 4.8669195 0.22742589 14 0 0 0 0
43.839489 5.283083 0.29129344 41 0 0 0 0
44.206799 5.2285962 0.26233861 39 0 0 0 0
43.713078 4.6994591 1.5302933 36 0 0 0 0
44.089737 5.2718472 1.4580176 29 0 0 0 0
45.2626 5.1526022 0.085976407 2 0 0 0 0
44.784271 4.6903334 0.23484446 28 0 0 0 0
45.211376 4.7322507 0.12432748 4 0 0 0 0
44.716408 5.2526488 0.15414187 39 0 0 0 0
45.145653 5.5787106 0.090335339 20 0 0 0 0
44.247227 4.8036127 3.4677367 1 0 0 0 0
44.1143 4.9171586 2.699079 1 0 0 0 0
43.743473 5.2639995 1.6154091 1 0 0 0 0
43.328007 4.7421222 1.5445189 1 0 0 0 0
43.791126 4.8608189 3.3859415 1 0 0 0 0
43.995071 4.8445172 2.6822608 14 0 0 0 0
43.896996 5.7012725 1.6272594 30 0 0 0 0
43.691971 5.4160471 3.4565592 7 0 0 0 0
44.422573 4.8586369 1.6407595 31 0 0 0 0
44.753723 5.6695204 1.6164837 20 0 0 0 0
44.692207 5.2308893 1.627589 26 0 0 0 0
45.80864 5.1342106 1.5537589 7 0 0 0 0
44.786968 4.7286997 1.8616008 15.5 0 0 0 0
44.27877 5.217999 1.6476053 1 0 0 0 0
45.095867 5.411685 3.4405291 1 0 0 0 0
44.358303 5.6684875 4.1603389 18 0 0 0 0
43.793114 5.2440739 3.5800288 1 0 0 0 0
44.173622 5.1368651 3.7122869 1 0 0 0 0
44.265575 4.8004203 3.6963444 1 0 0 0 0
44.295399 5.2256999 4.1667914 14 0 0 0 0
44.598164 5.1455092 4.2241039 19 0 0 0 0
44.661217 4.9061999 3.7017725 2 0 0 0 0
44.520641 4.784955 4.2099776 1 0 0 0 0
45.186928 5.3393235 3.5840125 3 0 0 0 0
44.94474 5.5876122 3.6358294 1 0 0 0 0
41.844078 5.316824 6.7663002 18 0 0 0 0
43.26392 5.2585778 4.8512998 2 0 0 0 0
42.664928 5.4948072 6.1461306 39 0 0 0 0
42.580631 5.643539 4.4160695 1 0 0 0 0
41.895882 5.3563128 5.6163135 11 0 0 0 0
42.476139 5.2643247 5.0086432 14 0 0 0 0
37.005306 5.5962124 4.8854885 3 0 0 0 0
36.942883 5.4606972 4.85605 14 0 0 0 0
41.861973 5.6464925 5.6386404 11 0 0 0 0
42.249374 5.3990459 5.7021003 11 0 0 0 0
43.185307 5.7051101 5.1074524 35 0 0 0 0
43.203991 5.1712089 5.0897775 1 0 0 0 0
42.805374 5.2143955 5.7874417 32 0 0 0 0
43.239349 5.3825378 5.6937337 31 0 0 0 0
41.846775 4.7921715 6.7077465 26 0 0 0 0
41.258072 5.2548423 6.4727554 28 0 0 0 0
41.364101 4.8713202 6.5912743 19 0 0 0 0
41.308434 5.3112431 6.5873718 24 0 0 0 0
40.954891 5.6771803 6.4546189 19 0 0 0 0
42.214424 5.2376227 6.7293344 18 0 0 0 0
42.064041 4.8389435 6.7066073 30 0 0 0 0
43.11124 4.8113699 6.693541 34 0 0 0 0
42.832115 5.6684628 6.5734916 1 0 0 0 0
44.278458 4.7303138 4.8055267 1 0 0 0 0
44.30109 5.2907801 4.7826023 1 0 0 0 0
44.134022 4.6882486 4.4237838 1 0 0 0 0
43.444817 5.4018102 4.4746728 14 0 0 0 0
43.813503 5.7036233 4.4988689 2 0 0 0 0
43.738392 4.7158189 5.6789913 1 0 0 0 0
43.311069 5.6636682 4.9570661 18 0 0 0 0
43.632721 5.4662066 4.8327556 23 0 0 0 0
44.231239 4.799479 5.6398573 1 0 0 0 0
44.289124 5.1801753 5.7460666 1 0 0 0 0
43.801216 4.7028666 6.1835065 35 0 0 0 0
43.748016 5.1533532 5.9399385 37 0 0 0 0
43.304089 4.8098269 5.9111462 29 0 0 0 0
43.758251 5.2455411 6.0854063 28 0 0 0 0
43.310734 5.1948271 6.6834545 11 0 0 0 0
44.356548 5.2053151 6.2993894 32 0 0 0 0
44.417671 4.9537888 6.5635099 34 0 0 0 0
44.406673 5.6168027 6.2158451 1 0 0 0 0
44.38607 5.304635 6.6170559 30 0 0 0 0
43.31604 5.5608096 7.1301365 42 0 0 0 0
42.731819 4.8473587 7.949471 26 0 0 0 0
42.690643 5.378571 7.437499 1 0 0 0 0
41.725071 5.288496 7.690043 4 0 0 0 0
41.215549 5.4767275 7.7387238 7 0 0 0 0
41.247025 5.6394448 7.8149738 1 0 0 0 0
42.616871 5.1500478 6.7900429 30 0 0 0 0
42.630863 5.2991242 7.9368086 18 0 0 0 0
43.288521 5.2689319 7.0848403 3 0 0 0 0
42.708454 4.8052778 6.8309975 35 0 0 0 0
43.280293 4.7100811 7.0485148 1 0 0 0 0
43.13847 4.9049487 7.5039964 1 0 0 0 0
43.139431 5.2425299 7.6560073 1 0 0 0 0
43.282372 4.759222 8.295496 9.5 0 0 0 0
42.810467 5.0219846 8.0545616 26 0 0 0 0
42.448479 5.4131246 8.051095 1 0 0 0 0
42.988373 4.742753 8.1399679 40 0 0 0 0
43.21402 5.3149686 8.1823912 29 0 0 0 0
42.983025 4.7653384 9.1602287 1 0 0 0 0
42.752934 5.1915698 9.1031904 1 0 0 0 0
43.279808 4.7538843 9.2486429 3 0 0 0 0
43.261662 5.2442923 9.253315 40 0 0 0 0
43.791962 5.2315388 8.2379866 32 0 0 0 0
44.611725 5.7070384 7.2936406 11 0 0 0 0
43.837921 4.7480078 7.1086016 1 0 0 0 0
44.278107 4.7199311 7.1928964 82 0 0 0 0
43.799583 5.2742405 7.0956335 20 0 0 0 0
44.353867 5.6907229 7.2464499 35 0 0 0 0
44.303719 4.7675004 7.7461476 1 0 0 0 0
44.555202 4.7946367 7.3725429 35 0 0 0 0
44.320206 5.4541979 7.2940159 41 0 0 0 0
43.760468 4.845386 8.2279234 7 0 0 0 0
44.422836 5.1206493 7.7583909 32 0 0 0 0
43.757465 5.27455 9.3522844 25 0 0 0 0
44.265606 5.6950431 8.3054304 37 0 0 0 0
44.213612 5.3049464 8.2740221 55 0 0 0 0
44.236206 5.3181891 8.5942822 35 0 0 0 0
44.187286 5.0191436 9.0792723 1 0 0 0 0
44.067368 5.2326546 9.6860771 20 0 0 0 0
43.676468 4.7756505 9.3617563 14 0 0 0 0
44.230572 4.9864612 9.572485 29 0 0 0 0
43.825619 5.3795042 9.60816 18 0 0 0 0
43.71489 5.5644956 9.5992746 11 0 0 0 0
45.681133 4.737185 7.4628911 26 0 0 0 0
45.695103 4.7680755 5.1885448 11 0 0 0 0
44.762127 5.6694632 4.8266296 1 0 0 0 0
45.305626 5.1894345 4.5964475 1 0 0 0 0
44.95142 4.8162742 4.6117496 1 0 0 0 0
44.728909 5.446034 4.7813592 1 0 0 0 0
45.306999 4.7437735 4.6435108 1 0 0 0 0
45.692249 5.3101387 4.4097681 3 0 0 0 0
45.296463 4.8137174 5.3355498 1 0 0 0 0
44.887623 5.2356462 5.0647979 26 0 0 0 0
44.782295 5.3464551 5.6976476 2 0 0 0 0
44.787914 4.7097964 5.7714839 1 0 0 0 0
45.44693 5.1412153 5.839355 1 0 0 0 0
44.686337 4.7665973 6.7663178 1 0 0 0 0
44.775002 5.3284268 6.4313927 1 0 0 0 0
44.703102 4.850338 6.0876517 14 0 0 0 0
44.74287 5.2650814 6.7432356 1 0 0 0 0
45.022232 5.6194024 6.0869832 30 0 0 0 0
45.368435 5.4886141 6.0881047 1 0 0 0 0
45.202839 4.943821 7.4270349 23 0 0 0 0
44.657719 5.3061934 7.2497563 30 0 0 0 0
45.140194 4.9646111 6.8583307 1 0 0 0 0
45.671188 5.3824854 7.277987 1 0 0 0 0
45.286594 5.1968894 6.8789687 1 0 0 0 0
45.687328 5.1945419 6.9157491 1 0 0 0 0
45.420921 5.1406217 7.4166842 35 0 0 0 0
47.469898 5.3163486 6.636807 30 0 0 0 0
45.767708 5.2671418 5.1202683 1 0 0 0 0
46.28273 5.239779 4.4957027 1 0 0 0 0
45.8498 4.7797012 4.6535301 1 0 0 0 0
46.214027 4.7442842 4.7798815 1 0 0 0 0
45.941479 5.600245 4.7840691 2 0 0 0 0
46.223915 5.2632594 4.6783309 1 0 0 0 0
45.793156 5.2972655 4.717649 30 0 0 0 0
46.28009 5.6104712 4.4868712 20 0 0 0 0
45.827579 5.2737503 5.5361714 32 0 0 0 0
46.154339 5.0589848 5.1448793 20 0 0 0 0
46.129524 4.8134022 5.142303 35 0 0 0 0
46.341267 5.259336 5.7596984 20 0 0 0 0
45.764153 5.6823459 5.7961106 1 0 0 0 0
45.887421 5.6293192 5.1347861 2 0 0 0 0
46.561565 5.4109368 5.9326267 1 0 0 0 0
46.5317 5.5899472 5.8659725 1 0 0 0 0
47.094154 5.49155 5.9431896 1 0 0 0 0
46.713959 5.3174458 7.036963 14 0 0 0 0
46.075668 5.2993965 7.3204412 11 0 0 0 0
46.424854 4.8706002 6.9383893 3 0 0 0 0
46.272137 5.1485858 6.8845744 20 0 0 0 0
46.511856 5.0448203 7.0230594 1 0 0 0 0
45.764343 5.7070045 7.3668666 1 0 0 0 0
46.523952 5.669404 6.998817 1 0 0 0 0
47.30043 5.2659211 7.2565246 20 0 0 0 0
46.883297 4.771771 7.182394 1 0 0 0 0
47.066898 4.6900306 6.9698377 1 0 0 0 0
46.767242 5.7015328 7.121603 29.5 0 0 0 0
47.824963 5.2404852 7.039412 18 0 0 0 0
47.816086 4.8936329 6.6994381 1 0 0 0 0
47.731739 5.3756609 6.6890149 1 0 0 0 0
45.744236 5.3314562 7.7126312 27 0 0 0 0
45.222523 4.7167544 8.7432165 32 0 0 0 0
45.106316 4.7989688 8.0418854 11 0 0 0 0
44.751461 4.7473607 7.7578807 21 0 0 0 0
45.110004 4.7520895 7.7869072 1 0 0 0 0
44.823483 5.2506423 7.7701626 1 0 0 0 0
45.276638 5.288548 7.8407388 1 0 0 0 0
44.93605 4.7490835 8.6121454 32 0 0 0 0
44.682552 4.7709188 8.392704 32 0 0 0 0
44.667431 5.2125764 8.466795 1 0 0 0 0
45.204338 5.1548738 8.2797804 30 0 0 0 0
45.102863 5.2171507 8.5800848 1 0 0 0 0
45.002922 5.0712347 10.005154 3 0 0 0 0
44.902103 4.7478919 9.8252001 1 0 0 0 0
44.95924 4.9845023 9.8033342 26 0 0 0 0
44.968609 5.6112771 10.042689 1 0 0 0 0
44.787979 5.2416663 9.7899761 1 0 0 0 0
45.180019 5.5936384 10.17341 1 0 0 0 0
45.573048 4.9574089 9.9491081 2 0 0 0 0
45.332375 5.2849617 10.16344 1 0 0 0 0
45.180279 5.2834177 9.8672228 35 0 0 0 0
45.731079 5.6927352 9.8622694 1 0 0 0 0
45.190708 5.6334653 10.506387 1 0 0 0 0
46.022846 4.7507138 8.8084936 18 0 0 0 0
46.163727 5.3068161 7.5971465 18 0 0 0 0
45.914597 5.1347222 8.1418905 52 0 0 0 0
45.755253 4.6932116 7.8260417 3 0 0 0 0
45.75919 4.7487049 8.7429333 1 0 0 0 0
45.924107 5.4240327 8.8071823 39 0 0 0 0
47.152962 5.3311677 7.7676239 1 0 0 0 0
46.16637 5.2502337 8.1386566 1 0 0 0 0
47.063419 4.8946576 7.6950421 31 0 0 0 0
47.038399 4.7620997 8.407486 1 0 0 0 0
47.538208 5.4504418 7.6818156 18 0 0 0 0
47.320992 5.4306598 8.6056747 1 0 0 0 0
46.921196 5.6193199 10.514718 1 0 0 0 0
46.755722 5.3313284 9.3751163 1 0 0 0 0
45.821037 5.3918128 9.1052561 1 0 0 0 0
46.099476 5.4073787 8.8353682 20 0 0 0 0
46.062981 4.999589 10.292572 1 0 0 0 0
46.509808 4.7867703 10.759629 1 0 0 0 0
45.864494 5.4539862 10.213553 28 0 0 0 0
46.876808 5.403656 10.291559 1 0 0 0 0
47.062679 5.5354695 10.544197 1 0 0 0 0
47.22855 4.9731035 10.425248 1 0 0 0 0
47.162598 5.3630395 10.370673 1 0 0 0 0
47.14748 5.553278 10.273006 20 0 0 0 0
48.232983 5.3474121 9.4076452 23 0 0 0 0
41.196415 6.1290612 6.4987807 11 0 0 0 0
43.284344 6.2584519 0.51242161 31 0 0 0 0
38.217255 7.1630244 1.3045012 33.5 0 0 0 0
39.631001 6.3427839 1.2789968 39 0 0 0 0
38.780834 6.1896772 -0.54316288 1 0 0 0 0
38.261452 6.8139768 -1.4247314 17 0 0 0 0
37.332745 6.1470799 -1.4677678 1 0 0 0 0
37.230423 6.3861942 -0.55706477 31 0 0 0 0
37.018154 6.9406948 -1.2730342 26 0 0 0 0
36.754429 6.5424261 -0.54613292 1 0 0 0 0
37.89711 6.0751243 -1.3045076 1 0 0 0 0
38.253784 5.7752919 -1.3195997 13 0 0 0 0
37.891514 6.9644547 -1.3158737 12 0 0 0 0
39.165562 6.3125358 -0.551723 3 0 0 0 0
38.370571 6.1592522 -1.3289894 19 0 0 0 0
38.707062 6.2129955 -1.357278 12 0 0 0 0
38.758102 5.8440199 -0.57149237 20 0 0 0 0
38.683365 6.6160073 -1.3872398 10 0 0 0 0
39.03717 6.8332987 -1.3960365 7 0 0 0 0
38.708977 6.7378459 -0.55151325 11 0 0 0 0
38.279369 5.7173104 -0.53132838 1 0 0 0 0
37.511929 6.2098489 1.1784233 6 0 0 0 0
37.94458 7.0443196 -0.51347321 4 0 0 0 0
37.84193 6.9276299 -0.50579619 20 0 0 0 0
38.270027 6.7463894 -0.53492522 1 0 0 0 0
37.728611 6.782125 1.2920904 29 0 0 0 0
37.164463 6.8939676 1.2106979 29 0 0 0 0
38.158653 6.7934756 1.3040065 29 0 0 0 0
39.234093 5.7919364 1.23437 23 0 0 0 0
38.413361 7.0288553 0.33197814 23 0 0 0 0
38.702797 6.9794631 -0.48680264 35 0 0 0 0
38.826992 6.7356868 0.35618195 16 0 0 0 0
38.760548 6.2637129 1.2869514 12 0 0 0 0
39.385876 6.2492981 1.2684776 29 0 0 0 0
39.020508 6.8048663 1.2899226 1 0 0 0 0
39.02039 7.0102739 1.2875053 6 0 0 0 0
42.717896 6.3104811 0.51484847 25 0 0 0 0
42.140305 6.7583766 -0.62932175 4 0 0 0 0
39.708988 6.7715049 1.2816702 1 0 0 0 0
40.714275 7.1473927 -1.3843619 7 0 0 0 0
40.493774 7.1922798 -1.4357316 11 0 0 0 0
40.228249 6.6601691 -1.8804976 4 0 0 0 0
41.865742 6.7337637 -0.58593941 8 0 0 0 0
40.003094 5.7352872 1.2951124 28 0 0 0 0
39.71217 5.8524208 1.2888503 16 0 0 0 0
40.677998 6.3278251 1.3018101 1 0 0 0 0
42.681053 6.1598444 0.38096055 34 0 0 0 0
42.524597 5.9233222 -1.5441403 10 0 0 0 0
42.464897 5.8995442 -1.5452147 7 0 0 0 0
42.417721 6.3025126 -1.5994308 1 0 0 0 0
42.417004 6.9052606 0.51967281 26 0 0 0 0
42.412327 5.8421364 0.46122658 32 0 0 0 0
42.450264 7.0518174 0.51719379 25 0 0 0 0
43.272831 6.1933594 -0.65384936 32 0 0 0 0
42.791321 6.2896876 -1.6367863 7 0 0 0 0
43.199966 5.7382913 -0.78433847 37 0 0 0 0
42.982811 5.8956032 -1.1036711 19.5 0 0 0 0
42.849026 5.7353601 -0.67322481 30 0 0 0 0
43.008202 6.8304882 -1.585544 23 0 0 0 0
42.905247 6.7534056 -1.6513151 14 0 0 0 0
42.776802 6.8326583 -0.68768322 29 0 0 0 0
42.733932 6.6586556 0.52641803 1 0 0 0 0
43.202061 5.7735066 0.33065605 32 0 0 0 0
42.96558 6.2584081 -0.62662965 26 0 0 0 0
43.193829 5.759469 -0.091899976 18 0 0 0 0
42.970089 6.4856572 0.44026592 30 0 0 0 0
43.134449 6.7277207 0.51843214 32 0 0 0 0
42.806614 6.718802 0.40622395 29 0 0 0 0
43.186836 6.7552609 0.3906197 37 0 0 0 0
42.859428 7.2083602 0.39888644 37 0 0 0 0
42.244045 6.3827481 6.2237463 20 0 0 0 0
38.64526 6.9896245 2.2398047 1.5 0 0 0 0
37.75396 7.1053166 2.1324327 17 0 0 0 0
37.295956 6.2917509 2.0961254 26 0 0 0 0
36.79282 6.8095121 2.0768423 14 0 0 0 0
37.265312 6.6640692 2.1044581 23 0 0 0 0
36.776306 7.2002554 2.0755799 13 0 0 0 0
37.717178 6.7570806 2.1273646 19 0 0 0 0
37.552628 6.2156439 2.1116502 14 0 0 0 0
38.455631 6.452867 1.3130605 29 0 0 0 0
37.35857 6.7472558 3.310564 11 0 0 0 0
38.297981 5.9811172 2.1791248 20 0 0 0 0
38.288029 6.1077123 2.175998 34 0 0 0 0
38.594841 6.0646434 2.2124825 12 0 0 0 0
37.582447 6.9663458 3.3840723 26 0 0 0 0
37.644745 6.0505514 3.5052214 18 0 0 0 0
36.712872 6.3150864 4.8638663 11 0 0 0 0
37.270279 7.0636144 3.4391441 39 0 0 0 0
41.075138 6.772285 4.5248814 8 0 0 0 0
40.99165 6.5538473 4.5067525 1 0 0 0 0
38.647068 6.7657685 1.3149339 1 0 0 0 0
39.224251 5.8161554 2.2666149 6.5 0 0 0 0
38.723423 7.1986179 2.2465889 2 0 0 0 0
39.234585 6.8959661 3.0575976 1 0 0 0 0
41.938229 6.8506994 1.4772987 1 0 0 0 0
42.230724 5.7311206 1.5083547 1 0 0 0 0
42.200741 6.9215226 1.4579316 18 0 0 0 0
41.467583 6.1345162 5.6168032 26 0 0 0 0
41.438213 5.8467927 5.564486 32 0 0 0 0
41.174854 5.7855258 6.4662552 13 0 0 0 0
42.161354 5.7406197 5.6342015 17 0 0 0 0
41.990036 6.4228234 6.1358204 14 0 0 0 0
41.841732 6.2432775 5.7009006 25 0 0 0 0
41.832096 6.6996145 5.7223706 35 0 0 0 0
41.688137 6.6118989 4.8939691 36 0 0 0 0
42.19891 6.9029441 5.6882868 10 0 0 0 0
43.270035 6.7650852 4.8591614 25 0 0 0 0
43.123817 6.2622385 1.5253261 32 0 0 0 0
43.232586 6.3562369 1.4874995 28.5 0 0 0 0
42.407436 6.2370114 1.4618304 12 0 0 0 0
42.725998 5.7169414 1.4768225 31 0 0 0 0
42.959614 5.994102 1.4901736 30 0 0 0 0
42.699707 6.265595 1.479637 29 0 0 0 0
42.76899 6.3385372 1.5128887 24 0 0 0 0
43.004509 6.7881355 1.5152014 1 0 0 0 0
42.675621 6.7436485 1.4800377 1 0 0 0 0
42.70396 6.7964678 1.5147291 20 0 0 0 0
43.259888 6.8021908 1.4844397 26 0 0 0 0
43.203926 7.1567526 1.4865752 1 0 0 0 0
42.37677 5.8754439 4.751986 29 0 0 0 0
42.37952 5.9656749 4.401258 1 0 0 0 0
42.330746 6.2936778 4.391326 35 0 0 0 0
42.6133 6.1869864 4.368609 1 0 0 0 0
42.316212 6.1754494 4.7769027 23 0 0 0 0
42.697792 6.2683511 4.8281903 29 0 0 0 0
42.391178 6.6155057 4.3470421 1 0 0 0 0
42.766304 6.7595711 4.6068988 3 0 0 0 0
42.431023 6.5698891 4.5009727 1 0 0 0 0
43.045837 6.4458337 4.395967 1 0 0 0 0
43.234608 6.7629385 4.3852458 1 0 0 0 0
42.794373 6.8290291 4.3750033 1 0 0 0 0
42.795116 6.237433 5.7579637 35 0 0 0 0
42.380581 6.3250222 5.6780725 23 0 0 0 0
42.738171 5.7451057 5.6595745 32 0 0 0 0
42.458332 5.9390321 5.007689 30 0 0 0 0
42.618134 5.861217 5.027988 26 0 0 0 0
42.760887 6.1467795 5.0837731 32 0 0 0 0
43.20821 6.2669964 5.2750669 36 0 0 0 0
42.831268 7.1716242 5.1400852 32 0 0 0 0
42.848122 6.6519432 5.0501823 23 0 0 0 0
43.060528 6.9250913 4.8929143 23 0 0 0 0
43.278866 6.664433 5.7279 42 0 0 0 0
42.796497 6.2655706 6.3441482 4 0 0 0 0
43.140976 6.2455673 6.4235911 47 0 0 0 0
42.485352 5.9016109 6.173933 18 0 0 0 0
42.728016 5.8158002 6.1535478 36 0 0 0 0
43.243248 5.8147469 5.7950621 36 0 0 0 0
43.277863 5.7422929 6.4574142 41 0 0 0 0
42.704292 7.1961808 6.3523917 32.5 0 0 0 0
42.277985 6.8525138 6.1088357 45 0 0 0 0
42.679844 6.7686987 6.1692801 47 0 0 0 0
43.192062 7.098218 6.4175906 58 0 0 0 0
42.875179 6.7266703 5.7992392 1 0 0 0 0
43.213589 6.8476534 6.4264855 46 0 0 0 0
44.037651 7.1052957 2.8303087 4 0 0 0 0
44.379868 7.2061677 -1.3481042 35 0 0 0 0
43.288765 6.8461909 -0.72080088 35 0 0 0 0
43.955647 6.7115011 -1.0852515 36 0 0 0 0
43.661682 6.1707406 -1.4879358 14 0 0 0 0
43.686714 5.7429667 -1.293784 26 0 0 0 0
43.289139 5.7671247 -1.131099 35 0 0 0 0
43.823483 5.7652807 -1.5855416 15 0 0 0 0
43.796913 6.7939992 -0.81995106 37 0 0 0 0
43.835361 6.2629375 -1.5353038 1 0 0 0 0
43.93417 6.7247138 -1.1767583 1 0 0 0 0
43.789803 6.202178 -0.73275214 29 0 0 0 0
44.366779 5.8894563 -1.266479 32 0 0 0 0
44.155426 5.8243623 -1.6841315 4 0 0 0 0
44.134319 5.7457767 -0.87461734 18.5 0 0 0 0
44.279102 6.7712898 -1.2306466 39 0 0 0 0
44.281658 6.2890725 -0.94242841 39 0 0 0 0
44.347866 6.2703619 -1.8183088 1 0 0 0 0
44.283905 6.8159099 -0.96772611 35 0 0 0 0
43.813873 5.8041444 1.4342649 26 0 0 0 0
43.721237 6.197186 0.24357209 32 0 0 0 0
44.181366 5.8956337 -0.094975233 1 0 0 0 0
43.751774 5.7660031 -0.67581469 32 0 0 0 0
44.185589 5.8064833 0.23361419 30 0 0 0 0
44.332226 6.2665977 0.17042245 32.5 0 0 0 0
44.264256 6.7669063 0.27619386 34 0 0 0 0
43.819981 5.7416973 0.24977486 32 0 0 0 0
43.775257 6.7953138 0.27392611 36 0 0 0 0
43.2985 6.2401481 0.37329292 35 0 0 0 0
44.136356 5.7733388 1.4107813 29 0 0 0 0
44.307308 6.2148809 1.6260664 1 0 0 0 0
43.843777 6.1381879 1.4762609 25 0 0 0 0
43.35107 5.794663 1.4799808 32 0 0 0 0
44.302593 5.7162752 1.6207687 26 0 0 0 0
44.321907 6.1759658 1.4547901 29 0 0 0 0
43.852154 6.0949078 1.6222602 23 0 0 0 0
43.5424 7.194788 1.4654074 11 0 0 0 0
43.453552 6.9042764 1.5037081 29 0 0 0 0
43.882423 6.9232726 1.4810786 14 0 0 0 0
44.371368 6.7466278 1.6126466 26 0 0 0 0
45.13446 6.6853671 -0.110902 32 0 0 0 0
44.85984 6.2390928 -0.17912531 29 0 0 0 0
44.851593 6.168088 -1.2115861 1 0 0 0 0
45.100002 6.325182 -1.7771902 26 0 0 0 0
45.031673 5.8167458 -1.7653846 1 0 0 0 0
44.936497 6.1697383 -1.8075718 7 0 0 0 0
45.040283 6.6178308 -2.0884533 1 0 0 0 0
44.906055 6.6703944 -1.7797812 1 0 0 0 0
45.01091 6.4321437 -0.97090042 1 0 0 0 0
44.420509 6.0389118 -1.1931002 30 0 0 0 0
44.746788 6.7282829 -1.18191 35 0 0 0 0
44.869629 6.7586513 -0.95919842 1 0 0 0 0
44.773247 6.7275095 -0.23903517 29 0 0 0 0
44.659149 6.3062339 0.19332519 11 0 0 0 0
44.800602 5.7875752 -0.016255582 1 0 0 0 0
44.717052 5.7174511 0.096673809 36.5 0 0 0 0
45.051914 6.0069723 0.14653723 11 0 0 0 0
44.735565 7.1673455 -0.14973278 1 0 0 0 0
45.103928 6.591094 1.6264898 20 0 0 0 0
44.664886 6.7380204 0.21547331 1 0 0 0 0
45.013058 6.2412643 1.6038321 14 0 0 0 0
44.722015 6.2619996 1.6429517 14 0 0 0 0
44.722843 6.6666932 1.6388822 1 0 0 0 0
45.630043 6.3467231 -1.7024211 35 0 0 0 0
45.256695 6.3022604 -0.21401425 26 0 0 0 0
45.370045 6.7490182 -1.6622311 28 0 0 0 0
45.259998 6.2826657 -1.3059694 36 0 0 0 0
45.240982 6.7831039 -1.3343164 35 0 0 0 0
45.337513 6.0695057 0.09261591 4 0 0 0 0
45.31918 5.7801337 -0.19514696 41 0 0 0 0
45.17326 6.8580937 0.10508318 30 0 0 0 0
45.211895 7.1855702 0.041185003 31 0 0 0 0
45.724171 6.7383327 -1.7743568 30 0 0 0 0
46.163456 5.7759519 -1.8761289 2 0 0 0 0
45.768166 7.1715035 -1.8788748 37 0 0 0 0
46.894077 6.0141706 -1.8166173 1 0 0 0 0
47.245258 5.8198652 -1.8485159 2 0 0 0 0
46.887318 5.7721186 -1.6146196 1 0 0 0 0
47.097324 6.1313658 -1.679823 1 0 0 0 0
45.695301 5.7431889 -1.4187492 4 0 0 0 0
45.806133 6.9382968 -0.19292748 26 0 0 0 0
45.345802 6.1773605 5.6580381 30 0 0 0 0
43.791901 6.7619562 5.3113461 67 0 0 0 0
44.655025 6.8593521 4.5250354 1 0 0 0 0
44.665558 6.1411877 4.4492784 7 0 0 0 0
43.846256 6.7042484 4.344914 43 0 0 0 0
43.295921 6.2018552 3.5513492 1 0 0 0 0
43.728065 6.1246438 4.4884567 1 0 0 0 0
43.419106 5.7104893 4.4993768 11 0 0 0 0
44.060349 6.7312989 4.3563709 21.5 0 0 0 0
44.280602 7.2003174 4.2516408 7 0 0 0 0
45.225842 7.006238 4.2796116 18 0 0 0 0
44.894054 5.9055457 2.9048138 1 0 0 0 0
45.213318 5.7361889 3.6919096 2 0 0 0 0
45.079758 6.1780453 4.3250093 25 0 0 0 0
44.964531 5.9616461 4.3297167 32 0 0 0 0
45.343273 6.6703234 4.3441525 29 0 0 0 0
44.108047 5.9224901 4.53438 1 0 0 0 0
44.01685 6.2747345 4.6079063 1 0 0 0 0
43.728245 5.7411294 4.6277289 1 0 0 0 0
43.79501 6.2662225 4.7569995 1 0 0 0 0
43.616142 6.6966734 4.9491587 29 0 0 0 0
43.608879 6.3125033 5.2410574 26 0 0 0 0
43.298889 6.7535853 5.2541361 1 0 0 0 0
44.277901 5.9726362 5.2565441 1 0 0 0 0
45.196922 5.7433376 4.6091723 1 0 0 0 0
44.227409 6.2828398 5.2969275 23 0 0 0 0
44.211071 6.8786516 4.5569038 1 0 0 0 0
45.213165 6.2216392 4.5541587 1 0 0 0 0
44.841808 6.1536422 4.6046133 11 0 0 0 0
44.652561 5.7630258 6.4325294 1 0 0 0 0
44.190018 6.4007907 5.6804128 23 0 0 0 0
43.829498 6.0095024 6.0691109 7 0 0 0 0
43.337379 6.2786775 5.7647686 48 0 0 0 0
43.872463 5.8655372 6.0619025 30 0 0 0 0
44.406689 5.7991314 5.760221 1 0 0 0 0
43.846977 6.2997184 5.6745186 39 0 0 0 0
44.291615 6.7905312 5.6778355 14 0 0 0 0
43.703682 7.1603532 5.32797 45 0 0 0 0
43.652775 6.7685595 5.6812463 25 0 0 0 0
43.628731 7.1816111 6.0679259 1 0 0 0 0
45.169868 6.2861042 6.0703897 3 0 0 0 0
44.686058 6.2338176 5.7694774 2 0 0 0 0
44.682869 6.1968799 5.4924402 18 0 0 0 0
45.217407 5.854547 5.4434638 20 0 0 0 0
45.21011 5.781549 5.7181931 47 0 0 0 0
44.760448 5.7521806 5.7308993 29 0 0 0 0
45.258617 6.7139335 6.0945911 1 0 0 0 0
44.746861 6.6452818 5.6963015 7 0 0 0 0
45.261326 6.6374807 5.7498312 14 0 0 0 0
44.859756 7.1911006 6.0321298 1 0 0 0 0
45.255726 7.039566 6.0818 1 0 0 0 0
46.237274 6.3186665 4.5271735 47 0 0 0 0
45.785713 6.7769485 4.4454141 7 0 0 0 0
45.807148 6.1619649 4.4171343 1 0 0 0 0
45.392166 6.662931 4.5323691 14 0 0 0 0
46.142498 6.2796326 4.4995818 1 0 0 0 0
45.851368 6.8325472 4.5191822 14 0 0 0 0
45.720295 7.1454244 4.4120698 20 0 0 0 0
46.147717 6.7773833 4.4591527 57 0 0 0 0
46.111485 6.5071244 5.9210572 18 0 0 0 0
45.733131 6.2506013 5.7276254 11 0 0 0 0
45.595173 6.0301404 5.4433303 1 0 0 0 0
45.709518 6.1368651 6.3433094 1 0 0 0 0
45.730167 6.6653066 6.0668321 63 0 0 0 0
45.76162 7.182179 6.1672907 1 0 0 0 0
45.711197 6.7279363 5.8023071 14 0 0 0 0
47.303009 5.9436808 4.705976 18 0 0 0 0
46.661983 6.7328959 4.6471539 41 0 0 0 0
46.656006 5.9343157 4.5445156 1 0 0 0 0
46.312401 5.7940273 4.5935187 1 0 0 0 0
46.240246 6.6983018 4.5807581 18 0 0 0 0
46.728176 6.2710309 4.6434197 46 0 0 0 0
47.153152 6.1687636 4.6285901 1 0 0 0 0
46.723568 6.2743239 5.7884583 20 0 0 0 0
46.299217 5.7641726 5.7971377 14 0 0 0 0
46.281372 6.1586461 5.7539349 30 0 0 0 0
46.988956 5.9118681 5.9970651 1 0 0 0 0
47.225777 5.7627954 5.9516935 14 0 0 0 0
47.215462 6.1796775 5.9435668 1 0 0 0 0
48.050014 6.3875365 5.8473592 1 0 0 0 0
47.732971 6.3487701 5.747293 20 0 0 0 0
47.373127 6.1478157 6.0964575 14 0 0 0 0
47.437614 5.8654613 6.4112258 4 0 0 0 0
47.801579 6.2680836 6.3301845 14 0 0 0 0
48.254818 5.8429298 6.1072459 11 0 0 0 0
48.204937 6.792892 6.1146097 20 0 0 0 0
47.333851 6.4971676 5.4812717 1 0 0 0 0
47.878754 6.606554 5.7971621 14 0 0 0 0
47.416519 6.5714674 6.4122014 1 0 0 0 0
47.822094 6.7312531 6.3863988 34 0 0 0 0
43.365032 7.2009521 7.0040507 15.5 0 0 0 0
42.197731 7.2026596 7.8281279 41 0 0 0 0
42.371777 5.910603 7.4702783 11 0 0 0 0
40.962784 6.6483784 7.5084562 20 0 0 0 0
41.327152 5.7650318 6.5397677 14 0 0 0 0
41.140263 5.8584008 7.498034 4 0 0 0 0
41.21883 6.4079742 6.5955749 4 0 0 0 0
40.962952 6.4079843 7.5080285 29 0 0 0 0
41.252621 6.260366 7.6721659 33 0 0 0 0
42.109955 5.8311415 6.7079148 26 0 0 0 0
41.723347 5.7533469 6.6426768 29 0 0 0 0
41.685703 6.2284789 6.6947441 28 0 0 0 0
42.259949 6.1942635 6.7460375 20 0 0 0 0
41.744976 6.2471113 7.7035913 41 0 0 0 0
42.150875 6.7374196 7.1975727 43 0 0 0 0
41.737682 6.7307129 6.7804923 23 0 0 0 0
41.28788 6.7298069 6.6695991 30 0 0 0 0
42.235874 6.7572618 6.7435699 23 0 0 0 0
41.881809 6.7213855 7.1718845 31 0 0 0 0
41.8046 7.1363015 7.7467065 18 0 0 0 0
41.317867 6.8264427 7.5632739 12 0 0 0 0
41.788403 6.7618709 7.7057219 36 0 0 0 0
42.092251 7.1767297 7.2469292 28 0 0 0 0
42.268257 6.8221712 7.7995324 20 0 0 0 0
43.199894 6.4083295 7.0022283 11 0 0 0 0
42.675938 5.7397494 7.4409299 45 0 0 0 0
43.238838 6.2469091 6.6946387 1 0 0 0 0
43.225842 5.7368813 6.591516 1 0 0 0 0
42.550056 6.3048191 6.8071575 1 0 0 0 0
42.753986 6.3166966 7.435019 1 0 0 0 0
42.743816 6.3318295 7.6689272 1 0 0 0 0
42.6562 5.7996206 7.6289659 2 0 0 0 0
42.51899 6.1970038 7.5065641 1 0 0 0 0
43.240833 5.7388983 7.738059 1 0 0 0 0
43.332668 6.3128309 7.8232975 1 0 0 0 0
42.459496 6.4576669 7.1200023 29 0 0 0 0
42.74548 6.7557344 6.8552036 4 0 0 0 0
42.70845 7.2127995 6.8483191 32 0 0 0 0
42.941586 6.8862319 6.5153918 26 0 0 0 0
43.298595 6.8219056 6.6002698 1 0 0 0 0
42.869484 7.1823001 7.6437473 1 0 0 0 0
42.929024 6.6931567 7.1500993 4 0 0 0 0
43.229023 6.8120661 7.1630163 32 0 0 0 0
42.901913 6.6927414 7.7620759 1 0 0 0 0
43.125477 6.7267432 7.6777067 1 0 0 0 0
42.722031 7.1587415 8.2057629 7 0 0 0 0
42.265343 6.7210832 8.9680605 32 0 0 0 0
42.184338 6.2665324 7.8846636 14 0 0 0 0
41.827599 5.8455834 7.8887706 20 0 0 0 0
41.783539 6.3808403 8.8112602 7 0 0 0 0
42.112843 5.9246883 7.9848285 14 0 0 0 0
42.10619 6.4653444 8.9124765 29.5 0 0 0 0
42.190201 7.1900182 8.9509726 32 0 0 0 0
42.341202 6.9864135 8.1705694 14 0 0 0 0
41.712883 6.7442255 8.8011036 25 0 0 0 0
41.982952 6.8591104 9.0486889 23 0 0 0 0
42.24791 6.7650194 9.1796818 1 0 0 0 0
42.352123 7.1684513 9.240612 2.5 0 0 0 0
43.237164 6.2428851 9.2449121 34 0 0 0 0
43.142117 5.8760142 8.0606318 28 0 0 0 0
42.87336 6.2285285 8.0118322 1 0 0 0 0
42.805882 5.7674732 9.1969328 40 0 0 0 0
42.815704 5.9208446 8.1368847 23 0 0 0 0
43.17474 5.7430224 9.2324638 39 0 0 0 0
43.320854 6.8557014 8.5369606 43 0 0 0 0
43.233799 6.7711763 8.221117 36 0 0 0 0
42.793682 6.7946601 8.1365318 37 0 0 0 0
43.358658 6.3937688 8.3525753 3 0 0 0 0
42.772976 6.6753035 9.3209019 14 0 0 0 0
42.858189 6.2611847 9.2108459 32 0 0 0 0
43.28471 6.7580566 9.2749548 43 0 0 0 0
43.29567 7.1678843 9.3586378 41 0 0 0 0
43.286945 6.8231363 9.5169315 1 0 0 0 0
44.060532 7.2085943 7.2634168 20 0 0 0 0
43.372681 6.4397855 7.3228779 4 0 0 0 0
43.670025 5.7525125 7.0417414 39 0 0 0 0
43.707653 5.7424994 6.7473574 1 0 0 0 0
43.892673 6.2092133 6.7615252 1 0 0 0 0
43.82486 6.7903614 6.7135625 3 0 0 0 0
43.753963 6.7368937 7.2508898 11 0 0 0 0
44.158562 6.622725 7.0202661 2 0 0 0 0
44.346142 6.2042851 7.3000436 32 0 0 0 0
44.495369 6.1987295 6.7798581 1 0 0 0 0
44.73082 5.8386159 6.7847795 1 0 0 0 0
44.770084 6.293067 6.757802 3 0 0 0 0
44.757549 6.236413 7.3206849 26 0 0 0 0
44.74818 6.7296319 6.9039993 40 0 0 0 0
44.232063 6.6714368 6.7884355 30 0 0 0 0
44.885075 6.6797743 7.1974649 20 0 0 0 0
44.246269 6.2997613 8.3147621 1 0 0 0 0
44.460842 6.1591525 7.5421643 39 0 0 0 0
43.793224 5.7515574 8.2485056 45 0 0 0 0
43.721996 6.2583547 8.2297812 1 0 0 0 0
44.427746 5.7904701 7.8805647 37 0 0 0 0
44.860943 5.9184508 7.7526588 45 0 0 0 0
44.780987 5.791512 8.0595779 26 0 0 0 0
44.720516 6.1628971 7.7113132 20 0 0 0 0
44.794987 6.262856 8.0471449 41 0 0 0 0
43.671093 6.6932712 8.1699085 28.5 0 0 0 0
43.619781 6.7813492 7.5382166 18 0 0 0 0
44.299828 6.7987566 7.8386617 49 0 0 0 0
44.353413 6.7879076 8.2263565 35 0 0 0 0
44.789761 6.68642 7.9184089 42 0 0 0 0
44.506508 7.0330091 7.5705342 30 0 0 0 0
44.684177 6.8146939 8.2608547 23 0 0 0 0
44.677586 7.1916108 8.3474512 30 0 0 0 0
43.597164 7.0758734 9.4058323 26 0 0 0 0
44.201107 5.7559576 8.8390551 37 0 0 0 0
43.391949 6.3832645 8.5136919 42 0 0 0 0
43.725536 6.2775426 9.3568506 47 0 0 0 0
44.143997 6.3084412 8.705863 32 0 0 0 0
43.752331 5.7871528 9.3915501 35 0 0 0 0
43.71743 6.8008952 8.8193617 36 0 0 0 0
43.977943 6.3976851 8.6258402 35 0 0 0 0
43.774326 7.1878171 9.1031332 39 0 0 0 0
44.189808 7.1504602 9.2316761 42 0 0 0 0
44.861118 6.3935571 8.6829004 26 0 0 0 0
44.437763 5.8652887 9.0651474 1 0 0 0 0
44.975601 5.7297301 8.8963461 45 0 0 0 0
44.474052 6.2011952 9.0203876 34 0 0 0 0
44.841522 6.3577976 9.0707159 1 0 0 0 0
44.521816 7.2155118 8.7842579 1 0 0 0 0
44.370277 6.7839336 8.9251213 23 0 0 0 0
44.729427 6.8735266 9.2434292 31 0 0 0 0
44.676033 6.702065 8.9091949 1 0 0 0 0
44.306919 5.7368083 9.5624447 32 0 0 0 0
44.011562 6.7544432 9.4849672 20 0 0 0 0
43.733089 6.1900015 9.6468725 1 0 0 0 0
44.300316 6.2490849 9.7479343 30 0 0 0 0
44.270443 6.7382622 9.7272835 49 0 0 0 0
43.695263 6.8501754 9.6970301 29 0 0 0 0
43.761093 6.8243766 9.4147711 25 0 0 0 0
43.802597 7.1229725 9.7192707 41 0 0 0 0
44.504597 6.6109371 9.9404774 1 0 0 0 0
44.746803 6.249433 9.7103968 36 0 0 0 0
44.737446 5.7714248 9.6992617 34 0 0 0 0
44.705822 6.7833548 9.6906605 1 0 0 0 0
44.854698 7.1643968 9.7023773 47 0 0 0 0
44.397583 6.7168326 10.229953 40 0 0 0 0
44.341637 6.392046 10.021023 1 0 0 0 0
44.916096 6.1334238 10.082663 1 0 0 0 0
44.560684 6.7267351 10.303173 32 0 0 0 0
44.962307 6.6648288 11.965379 1 0 0 0 0
45.602474 6.3095727 8.7125092 1 0 0 0 0
46.194351 5.7447939 7.1726823 20 0 0 0 0
45.187912 6.7188258 7.6398854 42 0 0 0 0
45.744225 6.3718481 7.2442231 1 0 0 0 0
45.352196 6.1497393 7.3947625 20 0 0 0 0
45.349789 5.7765675 6.8039246 20 0 0 0 0
45.157909 6.3481283 6.7967329 1 0 0 0 0
45.168282 5.9164453 7.3955774 30 0 0 0 0
45.789589 5.9353728 6.8268037 1 0 0 0 0
45.541683 6.2113376 6.7341881 1 0 0 0 0
46.049007 6.2470365 6.896502 1 0 0 0 0
45.801189 6.2385297 7.5850935 1 0 0 0 0
45.321568 7.1346445 6.9677234 2 0 0 0 0
45.095474 7.1698275 7.1957288 32 0 0 0 0
45.303593 6.6304135 6.9135485 77 0 0 0 0
45.170883 6.6971707 7.4686551 20 0 0 0 0
45.824547 6.7960734 6.7998438 1 0 0 0 0
45.864471 6.5804915 7.0394163 52 0 0 0 0
46.186649 6.683269 7.2581267 51 0 0 0 0
45.294422 6.1896458 8.6336174 18 0 0 0 0
45.572746 6.1243777 8.3891296 42 0 0 0 0
45.190052 5.8133512 8.2544556 34 0 0 0 0
45.317162 5.7535167 7.8493786 11 0 0 0 0
45.329224 5.8842525 8.6542311 20 0 0 0 0
45.809254 5.784646 8.0914192 2 0 0 0 0
45.659245 5.7451859 7.745378 11 0 0 0 0
46.178352 6.1379876 7.7052913 18 0 0 0 0
45.188675 6.774425 8.3126678 35 0 0 0 0
45.220169 6.1935496 8.3265076 23 0 0 0 0
45.237133 6.3256483 7.915885 29 0 0 0 0
45.100418 7.1739402 7.893352 23 0 0 0 0
46.139538 6.807611 7.7371655 1 0 0 0 0
45.690601 6.7008862 7.7343225 35 0 0 0 0
45.64296 6.5873485 8.4123468 41 0 0 0 0
47.186142 5.8535128 7.3864174 46 0 0 0 0
46.558094 6.9198399 7.7354035 7 0 0 0 0
46.474361 6.2160277 7.0022559 1 0 0 0 0
46.579578 6.0928016 7.3323216 1 0 0 0 0
46.275322 6.1316676 6.9814506 1 0 0 0 0
46.238087 5.8212633 6.9073672 1 0 0 0 0
46.674377 5.7332582 7.7314329 25 0 0 0 0
46.73896 6.1023612 7.6405382 37 0 0 0 0
46.330944 6.2902122 7.3114023 14 0 0 0 0
46.433895 6.238729 7.594418 18 0 0 0 0
46.506516 6.732347 7.2468863 36 0 0 0 0
46.394615 7.1952028 7.6617451 14 0 0 0 0
46.747322 6.6305852 8.1115847 43 0 0 0 0
46.260826 5.8290286 8.1139145 4.5 0 0 0 0
46.227016 5.8975987 7.9333191 18 0 0 0 0
46.587292 6.4354491 8.6455803 48 0 0 0 0
46.216599 6.2075558 8.379427 1 0 0 0 0
46.463444 7.0502453 8.0079012 39 0 0 0 0
47.048374 6.8811474 7.9354744 35 0 0 0 0
46.622395 6.728714 8.6598711 32 0 0 0 0
46.270187 6.6421256 8.4856186 1 0 0 0 0
47.114956 7.0904136 8.6829147 1 0 0 0 0
48.167789 6.2271447 7.9682655 14 0 0 0 0
47.242905 6.1354542 7.6694145 14 0 0 0 0
47.631413 5.7941618 7.6731849 18 0 0 0 0
47.732204 5.8848014 7.154489 1 0 0 0 0
47.292095 5.7840815 7.7383595 25 0 0 0 0
47.686893 6.0470567 7.7556496 1 0 0 0 0
47.659222 6.346302 7.229219 1 0 0 0 0
47.467369 6.3254104 7.1643338 18 0 0 0 0
47.945335 6.7737155 7.2331257 1 0 0 0 0
47.728592 7.1385856 7.9016552 1 0 0 0 0
47.567055 6.7031326 8.6095181 23 0 0 0 0
47.304798 6.6454916 8.2106686 1 0 0 0 0
47.199188 5.9111171 8.5751133 3 0 0 0 0
47.36631 6.6792183 8.5679655 1 0 0 0 0
48.257092 6.4091177 8.0867577 1 0 0 0 0
47.774933 6.572525 8.2603149 3 0 0 0 0
47.257896 7.0857768 8.1506605 1 0 0 0 0
48.250038 6.7444768 8.1950645 26 0 0 0 0
48.185284 7.10111 8.0572958 1 0 0 0 0
46.319138 6.9506912 9.6990833 39 0 0 0 0
46.163349 6.2988682 10.2018 1 0 0 0 0
46.208717 6.2559433 9.2368622 1 0 0 0 0
45.177353 6.3132596 9.1235247 30 0 0 0 0
46.129841 6.1736302 8.857233 1 0 0 0 0
45.181145 5.8026166 9.1019545 1 0 0 0 0
45.718651 5.7679133 8.7546225 23 0 0 0 0
46.207012 5.7385139 8.8636103 4 0 0 0 0
46.314346 5.8238463 9.1380177 1 0 0 0 0
45.707657 6.8392897 8.7506065 18 0 0 0 0
45.238567 6.7578263 8.7244406 40 0 0 0 0
45.219528 7.1777701 8.7198153 56.5 0 0 0 0
46.280678 6.707202 8.9281006 42 0 0 0 0
46.148273 6.5909514 9.2064438 29 0 0 0 0
45.174458 6.3172741 9.7420225 23 0 0 0 0
45.194698 5.739994 9.7508116 1 0 0 0 0
45.794342 5.7782216 9.2431908 46 0 0 0 0
45.704205 6.2243729 9.3434792 14 0 0 0 0
45.926559 5.8998952 10.103198 1 0 0 0 0
45.59586 6.2884183 9.9182615 36 0 0 0 0
45.88942 6.7201004 9.6486797 39 0 0 0 0
45.257763 6.7269917 9.3731461 31 0 0 0 0
45.649891 6.7746849 9.245039 48 0 0 0 0
45.290947 6.6898532 9.7893181 36 0 0 0 0
45.755325 6.7303696 10.198946 39 0 0 0 0
45.476406 6.4928503 10.790339 2 0 0 0 0
46.196224 6.6069131 10.228028 1 0 0 0 0
45.797935 6.2685828 10.621047 7 0 0 0 0
45.630661 6.276958 10.255455 14 0 0 0 0
45.488701 6.2673845 10.414887 34 0 0 0 0
46.223099 5.7555733 10.265527 1 0 0 0 0
46.213005 6.3736687 10.562029 39 0 0 0 0
45.371632 6.9592862 10.755215 43 0 0 0 0
45.476265 6.6377716 10.346296 23 0 0 0 0
45.537384 6.8321404 10.682018 7 0 0 0 0
45.330685 7.1617675 10.62214 36 0 0 0 0
45.756969 7.2064185 10.223494 1 0 0 0 0
45.18792 6.271008 12.044594 1 0 0 0 0
46.31377 6.9466248 11.081944 1 0 0 0 0
45.597431 5.9476604 10.996291 18 0 0 0 0
46.281883 6.7708173 10.841294 2 0 0 0 0
45.287678 6.2471781 11.969024 1 0 0 0 0
45.229904 6.7822442 11.95423 1 0 0 0 0
45.799503 6.4170241 12.154177 1 0 0 0 0
45.305111 6.707582 12.246103 1 0 0 0 0
45.296799 7.1598825 12.281686 1 0 0 0 0
46.105904 6.7164702 12.28803 1 0 0 0 0
46.241558 6.2823339 12.242403 1 0 0 0 0
45.814934 6.8237162 12.272438 1 0 0 0 0
46.321644 6.4076877 9.6347179 1 0 0 0 0
47.359337 6.3045492 8.9425907 7 0 0 0 0
47.02774 6.3275752 9.3878546 1 0 0 0 0
46.704693 5.7416697 9.2285538 1 0 0 0 0
46.500671 5.7931871 8.8969393 26 0 0 0 0
46.485859 5.9025259 9.520195 29 0 0 0 0
46.822491 5.7899981 9.5250654 1 0 0 0 0
47.243519 5.7640948 9.4382715 1 0 0 0 0
46.88327 7.0093122 9.1990404 36 0 0 0 0
46.817844 6.3400359 9.4122982 1 0 0 0 0
46.756752 6.8094745 9.1980076 1 0 0 0 0
46.493595 7.0256286 8.7726555 48 0 0 0 0
46.799671 7.0909138 8.7622232 41 0 0 0 0
47.463947 6.8404102 9.3177385 30 0 0 0 0
47.891975 6.1175623 8.8895197 4 0 0 0 0
47.635441 5.9338899 8.788763 2 0 0 0 0
47.760395 5.776876 9.3314943 1 0 0 0 0
47.519081 6.4383807 9.0851889 4 0 0 0 0
48.176365 6.7270684 9.3239489 32 0 0 0 0
47.596943 6.9593387 9.4268093 39 0 0 0 0
48.046135 6.8891749 8.8095312 1 0 0 0 0
47.66465 7.1674004 9.3397837 40 0 0 0 0
47.462952 6.8815069 9.6326857 34 0 0 0 0
47.53944 6.9226103 9.6195641 36 0 0 0 0
47.580551 6.8951392 10.509687 14 0 0 0 0
47.575615 6.6830859 10.072587 1 0 0 0 0
46.922493 5.7482071 10.142045 20 0 0 0 0
46.555035 6.164217 9.8964872 1 0 0 0 0
46.673225 6.2593741 10.192984 1 0 0 0 0
47.086647 6.08955 9.8999329 1 0 0 0 0
47.209515 6.2388477 10.220167 1 0 0 0 0
46.998238 6.803422 10.165065 29 0 0 0 0
46.731289 6.7528348 9.9448671 20 0 0 0 0
46.649475 7.0063176 10.285641 11 0 0 0 0
47.234226 6.8209267 10.243207 39 0 0 0 0
47.714455 7.1366448 9.7665195 3 0 0 0 0
46.596016 6.5296421 12.374715 1 0 0 0 0
46.54998 6.8432207 10.979396 11 0 0 0 0
46.964283 6.3914843 10.898859 2 0 0 0 0
47.473053 6.8529472 10.512726 2 0 0 0 0
46.843998 6.124198 11.03792 1 0 0 0 0
46.429588 5.8258314 12.218659 1 0 0 0 0
46.603794 5.7455311 12.293172 14 0 0 0 0
46.598572 6.1578612 12.28813 29 0 0 0 0
46.638767 6.6272225 12.56804 4 0 0 0 0
46.623886 6.4072199 12.576662 1 0 0 0 0
46.502144 7.0589042 12.543127 1 0 0 0 0
46.442986 6.6355748 12.521708 1 0 0 0 0
46.340843 7.0709815 12.500918 1 0 0 0 0
40.802738 8.4365559 6.5700865 1 0 0 0 0
42.752029 9.7653065 5.3424549 18 0 0 0 0
37.177452 8.273119 1.1611564 24 0 0 0 0
40.749146 8.3203039 -1.6033878 1 0 0 0 0
38.758251 7.2365212 0.35969716 39 0 0 0 0
36.793171 7.9238024 -0.55088425 19 0 0 0 0
38.18401 7.8606515 0.42532647 13 0 0 0 0
36.843819 7.4738064 -1.265412 35 0 0 0 0
37.641087 7.3766875 -1.3088562 12 0 0 0 0
37.130116 7.7469807 -1.3053486 36 0 0 0 0
37.696129 7.6977491 -1.3694562 7 0 0 0 0
37.709785 7.8213868 0.40005842 19 0 0 0 0
37.450012 7.2800708 -0.56201637 11 0 0 0 0
37.769611 7.2893019 0.42770889 8 0 0 0 0
38.330978 7.3697367 -1.3736546 7 0 0 0 0
38.662678 7.6557126 -1.4102187 39 0 0 0 0
38.316074 7.5859251 -1.3973502 23.5 0 0 0 0
38.587978 7.5648789 -1.7777919 2 0 0 0 0
38.681217 7.3174372 -1.3753318 37 0 0 0 0
38.677731 7.6906524 -0.49944365 26 0 0 0 0
38.690872 7.2305837 -0.46009356 13 0 0 0 0
38.720512 7.7893758 -0.57634133 31 0 0 0 0
37.64547 8.1550798 -1.3826923 10 0 0 0 0
37.460373 8.5659704 -1.7801734 2 0 0 0 0
37.015179 8.1079178 -1.7606108 1 0 0 0 0
37.206722 8.2925339 -1.4133101 17 0 0 0 0
36.877804 9.2222281 -1.4731324 2 0 0 0 0
37.912033 8.955452 -1.8776935 1 0 0 0 0
37.774014 9.1691494 -1.7912577 4 0 0 0 0
37.739193 9.665472 -1.7706844 2.5 0 0 0 0
37.317707 9.832159 -1.8979802 1 0 0 0 0
37.41787 10.060737 -1.7198963 11 0 0 0 0
38.690269 9.5466633 -1.4398528 39 0 0 0 0
38.507469 9.9240923 -1.5164567 1 0 0 0 0
37.745106 9.0041199 -1.0615969 30 0 0 0 0
37.787876 8.2414865 0.31114605 10 0 0 0 0
36.68021 8.122757 -1.2662117 1 0 0 0 0
37.03484 8.5440302 -0.49904537 2 0 0 0 0
38.29789 8.3012934 0.39465931 13 0 0 0 0
38.563843 8.1199074 0.4018124 8 0 0 0 0
36.87891 10.017801 -0.8906436 6 0 0 0 0
36.835987 9.2860022 -0.84235936 1 0 0 0 0
36.72467 9.1116724 -0.46538311 1 0 0 0 0
37.162907 9.7965155 -0.7706995 6 0 0 0 0
38.075859 9.9751253 -1.0051233 36 0 0 0 0
40.626663 8.4767647 -0.11590834 51 0 0 0 0
39.753223 8.7030849 -1.0861267 55 0 0 0 0
39.684662 8.2727175 -0.94407189 26 0 0 0 0
39.166573 8.2340612 -1.3570545 1 0 0 0 0
38.906986 7.4649153 -0.63204008 42 0 0 0 0
39.437489 8.2484331 -0.89367008 29 0 0 0 0
39.186863 8.7571659 -1.3709817 26 0 0 0 0
38.978451 8.3700352 -1.1519083 18 0 0 0 0
38.927254 8.7629719 -1.1466106 20 0 0 0 0
39.303734 9.2352066 -1.1735573 20 0 0 0 0
38.863842 10.016719 -1.3059001 14 0 0 0 0
40.53204 8.553606 -1.3187717 51 0 0 0 0
40.691067 7.7910585 -1.387012 1 0 0 0 0
40.308453 7.6001358 -1.3600886 29 0 0 0 0
40.557293 8.3179626 -1.384746 90 0 0 0 0
40.73045 8.6955652 -1.7039162 1 0 0 0 0
40.184021 8.2008963 -1.1803613 20 0 0 0 0
40.369766 8.7006044 -1.2644694 57 0 0 0 0
39.870098 8.3211164 -1.0211833 31 0 0 0 0
40.371086 7.9228358 -0.20622492 1 0 0 0 0
40.058636 8.2581644 -0.16634651 1 0 0 0 0
39.337585 8.1835299 0.18661188 20 0 0 0 0
39.212341 7.383153 0.80473739 14 0 0 0 0
38.885471 7.7112689 0.30717224 25 0 0 0 0
39.311337 7.9899755 0.19558237 32 0 0 0 0
38.934055 7.6857228 1.0832151 14 0 0 0 0
39.192822 7.5933299 1.1223385 1 0 0 0 0
40.145367 7.777739 0.19602673 41 0 0 0 0
40.081619 7.2882209 0.24351428 7 0 0 0 0
39.712666 7.740459 0.22037375 42 0 0 0 0
40.217663 8.2048874 0.050375238 34 0 0 0 0
39.434929 7.9124789 0.8547107 7 0 0 0 0
39.702057 8.7269554 0.078115746 45 0 0 0 0
39.011806 9.709549 1.1255522 35 0 0 0 0
38.78471 9.2408495 1.1386735 41 0 0 0 0
39.699368 8.2727842 0.18522236 11 0 0 0 0
38.766487 10.214281 1.1547418 32 0 0 0 0
39.594341 10.202433 1.1162515 18 0 0 0 0
40.329136 8.7072887 -0.0025350596 18 0 0 0 0
40.255665 8.6521778 0.0068010455 30 0 0 0 0
39.702072 9.699626 1.1273376 31 0 0 0 0
40.2789 9.8861523 1.1470842 7 0 0 0 0
40.766796 9.0015507 -0.26393929 7 0 0 0 0
41.792656 7.8563395 -1.5840464 13 0 0 0 0
42.016365 7.2584162 -1.5535702 10 0 0 0 0
41.979736 7.7462769 -0.6882264 43 0 0 0 0
41.497372 7.8065071 -1.5248245 1 0 0 0 0
41.755924 7.3200712 -0.61235607 6 0 0 0 0
42.699581 7.5075617 -1.5854119 20 0 0 0 0
42.060478 7.7252645 -1.6101377 11 0 0 0 0
42.056351 7.2480726 -0.61789346 4 0 0 0 0
42.248165 8.790803 -0.65488917 22 0 0 0 0
41.713219 8.2395897 -1.5575927 10 0 0 0 0
41.602669 8.8819523 -1.6110902 4.5 0 0 0 0
42.479008 8.6713629 -1.596835 23 0 0 0 0
41.75695 8.2337742 -0.62051535 7 0 0 0 0
42.259235 8.23314 -0.62937456 7 0 0 0 0
41.769894 8.7672024 -0.53477836 29 0 0 0 0
42.222435 8.6469736 0.38252217 32 0 0 0 0
42.087105 9.0261106 0.50562328 26 0 0 0 0
41.749466 8.2409086 0.4096373 36 0 0 0 0
40.772755 8.7761221 -0.19939472 30 0 0 0 0
41.919289 8.7149944 0.45951483 22 0 0 0 0
42.216709 8.2282066 0.41707784 20 0 0 0 0
42.218037 7.7474756 0.50689441 22 0 0 0 0
42.200779 8.6782179 0.51265049 24 0 0 0 0
42.741474 7.7368846 0.36119986 3 0 0 0 0
42.48988 7.2904668 0.36133385 36 0 0 0 0
42.683064 7.2305412 0.52393824 30 0 0 0 0
42.366795 7.7170324 0.35487223 30 0 0 0 0
42.431591 8.2504892 0.51578975 32 0 0 0 0
42.716312 7.794373 0.50171411 26 0 0 0 0
42.515331 8.2613382 0.51192838 35 0 0 0 0
42.659859 8.9950571 0.5057745 30 0 0 0 0
41.697876 9.3116188 -0.65034091 45 0 0 0 0
42.07616 9.6983404 -1.6598406 20 0 0 0 0
41.168686 10.110778 -1.6508018 15.5 0 0 0 0
40.956661 9.8448563 -1.5790734 20 0 0 0 0
41.117989 9.6091528 -1.6066837 24 0 0 0 0
40.960072 10.00368 -1.6151781 37 0 0 0 0
41.738869 9.1621027 -1.629187 30 0 0 0 0
41.191402 9.2858124 -1.5375605 3 0 0 0 0
41.947258 9.7312117 -1.6713872 20 0 0 0 0
42.734539 9.7371635 -1.0932984 45 0 0 0 0
42.68787 9.2871161 -0.79012513 36 0 0 0 0
42.232193 9.2496166 -1.5903845 31 0 0 0 0
42.327034 9.2136717 -0.65074188 32 0 0 0 0
42.27776 9.7893915 -0.75179362 35 0 0 0 0
42.712109 9.7651367 -0.85238504 45 0 0 0 0
42.298325 10.185112 -0.67647135 32 0 0 0 0
42.693386 10.259349 -0.89780992 58 0 0 0 0
41.891136 9.8713388 0.50271374 26 0 0 0 0
41.747696 9.831049 -0.62745762 1 0 0 0 0
41.043282 9.7736435 -0.65003973 10 0 0 0 0
40.955601 9.9528742 -0.64793462 6 0 0 0 0
41.788994 10.264415 -0.63148808 1 0 0 0 0
41.769657 9.7458296 0.40756452 26 0 0 0 0
41.69418 9.2588634 0.36671564 35 0 0 0 0
41.689564 10.248929 0.37105829 1 0 0 0 0
42.2808 9.6885223 0.35905626 18 0 0 0 0
42.281574 9.2344208 0.5080353 26 0 0 0 0
42.124504 9.2303715 0.24270596 59 0 0 0 0
42.695503 9.3185663 0.28519255 35 0 0 0 0
42.179722 9.7534723 0.50528961 32 0 0 0 0
42.00256 10.065598 0.48003805 23.5 0 0 0 0
42.289871 10.254784 0.34944978 38 0 0 0 0
42.742619 10.205756 0.2057409 37 0 0 0 0
41.2831 9.7287512 1.419394 28 0 0 0 0
38.249718 9.2749166 1.1713256 46 0 0 0 0
37.3941 8.6999187 2.1659267 1 0 0 0 0
38.240932 8.3180513 1.8616661 14 0 0 0 0
37.69009 7.7801156 1.243283 25 0 0 0 0
37.240829 7.9402347 1.2092292 25 0 0 0 0
36.830307 7.7299232 1.2711136 26.5 0 0 0 0
36.697506 8.25177 1.2358389 1 0 0 0 0
37.237617 8.3031902 1.7248915 1 0 0 0 0
38.225075 7.6584678 1.3035049 39 0 0 0 0
37.721767 7.219223 1.3047949 26 0 0 0 0
37.851498 8.1330585 1.2905668 23 0 0 0 0
38.177956 8.2335033 1.2254535 34 0 0 0 0
37.35368 8.4422216 2.1394937 17 0 0 0 0
37.16658 7.3465953 2.097749 29 0 0 0 0
36.750034 7.8239059 2.0829809 12 0 0 0 0
37.208813 7.8153219 2.1111403 12 0 0 0 0
38.149143 7.8133559 1.8952072 11 0 0 0 0
37.141586 8.2671728 2.9814105 25 0 0 0 0
37.800415 8.6293592 2.1752887 20 0 0 0 0
37.83149 7.7319422 3.4187343 3 0 0 0 0
37.135281 8.5033684 2.9856544 1 0 0 0 0
37.17543 9.2086134 1.2552752 22 0 0 0 0
36.758793 9.2371387 1.2459471 24 0 0 0 0
37.287308 8.7253485 1.2049427 26 0 0 0 0
36.713661 8.7483778 1.2434472 29 0 0 0 0
37.731045 9.1777477 1.1929383 43.5 0 0 0 0
38.197956 8.7160091 1.2029631 20 0 0 0 0
37.285152 10.2158 1.2319115 29 0 0 0 0
37.261806 9.7854929 1.1695631 10 0 0 0 0
37.821003 9.7563276 1.175107 43 0 0 0 0
37.643375 10.258081 1.1976603 29 0 0 0 0
36.746037 9.7493973 2.3560386 14 0 0 0 0
